-98.81512803111795,15.348305189621664,-216.670693917756
-98.90970574019613,14.726510462014156,8.475500341648095
-99.00037084217638,14.104133192491975,-159.51401738848298
-99.08711975058637,13.48119800065847,-120.43236405940783
-99.16994903386806,12.857729528186917,-30.109676458269398
-99.2488554155135,12.23375243784573,-61.7734763534912
-99.32383577419431,11.609291412523035,-9.624134348115042
-99.39488714388523,10.984371154250018,242.82384411579042
-99.46200671398148,10.35901638322395,160.88715121724363
-99.5251918294099,9.733251836830286,-280.5182797314987
-99.58443999073397,9.107102268664109,46.110266281907606
-99.63974885425266,8.48059244755095,-15.789970518396807
-99.69111623209321,7.853747156566997,98.21352287726597
-99.73854009229761,7.226591192058739,-127.36073540159008
-99.78201855890308,6.599149362662092,366.6589171434536
-99.82154991201608,5.971446488321034,20.99742160339644
-99.8571325878806,5.343507399305791,-214.78434308986084
-99.88876517893978,4.715356935230619,177.4312452691603
-99.91644643389176,4.087019944071169,197.31078337592714
-99.94017525773913,3.4585212811817465,142.23311488270926
-99.95995071183216,2.8298858083118277,390.37303483907317
-99.97577201390607,2.2011383926227786,199.14349044766485
-99.98763853811184,1.5723039057041255,116.1244040080627
-99.9955498150411,0.9434072225897046,-187.42738242592466
-99.99950553174459,0.31447322077366874,-87.91355864457127
-99.99950553174459,-0.31447322077359985,158.76001766792737
-99.9955498150411,-0.9434072225896357,136.44160155758468
-99.98763853811184,-1.5723039057040564,269.1732397850731
-99.97577201390607,-2.2011383926227093,304.85793938457937
-99.95995071183216,-2.829885808311759,-57.64323359857391
-99.94017525773914,-3.4585212811816777,272.3446688835546
-99.91644643389178,-4.0870199440711446,-12.633865692743463
-99.88876517893979,-4.715356935230551,23.52949282756136
-99.8571325878806,-5.3435073993057225,63.53673020996582
-99.8215499120161,-5.971446488320965,-119.1298492876556
-99.78201855890308,-6.599149362662023,143.70719784541373
-99.73854009229763,-7.226591192058669,-517.8510186453352
-99.69111623209321,-7.853747156566928,75.31779730925332
-99.63974885425266,-8.480592447550881,274.593577465862
-99.58443999073397,-9.107102268664041,-287.27621822025515
-99.5251918294099,-9.733251836830219,-554.0261988102711
-99.46200671398148,-10.359016383223883,56.6557284098559
-99.39488714388524,-10.98437115424995,311.76242580413407
-99.32383577419431,-11.609291412522968,-237.91395611937207
-99.2488554155135,-12.233752437845705,51.865686137812695
-99.16994903386808,-12.857729528186848,-35.22348809873201
-99.08711975058637,-13.4811980006584,-203.16633263335652
-99.0003708421764,-14.104133192491908,-136.6204154756477
-98.90970574019615,-14.726510462014087,-335.02381362336683
-98.81512803111796,-15.348305189621595,-270.7214508597023
-98.71664145618658,-15.969492778754907,-60.24512284866434
-98.61424991127116,-16.590048656871296,206.04721888966614
-98.50795744671116,-17.20994827641686,314.1706146046851
-98.39776826715617,-17.82916711579755,263.2654779740925
-98.28368673139948,-18.447680680349183,-177.23422951994257
-98.16571735220583,-19.065464503306405,-88.68308475863783
-98.04386479613268,-19.682494146770484,102.70319748322866
-97.9181338833458,-20.298745202676116,-69.73867914405287
-97.78852958742851,-20.914193293756718,161.09521786040594
-97.65505703518494,-21.528814074509008,-185.5276702103986
-97.51772150643723,-22.14258323215589,94.23418123775082
-97.37652843381669,-22.75547648760821,-120.81645676237267
-97.2314834025489,-23.36746959642521,-207.2990876425706
-97.08259215023277,-23.97853834977356,94.67015651120421
-96.92986056661356,-24.58865857538499,80.90793290032907
-96.7732946933499,-25.197806138512473,-53.20252500707331
-96.61290072377481,-25.80595694288498,-131.09069124477782
-96.44868500265072,-26.41308693166058,-14.50754691385183
-96.28065402591845,-27.019172088378156,-184.05643882890018
-96.1088144404403,-27.62418843790738,-258.344473190358
-95.93317304373701,-28.228112047397154,81.22651279622494
-95.75373678371909,-28.830919027222162,-119.6764814538164
-95.5705127584117,-29.432585531928158,-144.78680687424855
-95.38350821567406,-30.03308776117502,-99.60625449367839
-95.19273055291266,-30.632401960678312,135.39151874433867
-94.99818731678872,-31.230504423148915,-201.33774757128128
-94.79988620291955,-31.82737148923082,96.55284928101592
-94.59783505557425,-32.422979548437056,40.7156501608352
-94.3920418673633,-33.017305040083635,-606.0209477649018
-94.18251477892251,-33.61032445422156,177.4903383824584
-93.96926207859086,-34.20201433256682,92.60561322988812
-93.75229220208277,-34.79235126942834,-143.38596984548113
-93.5316137321543,-35.381311912633855,-29.001334205739354
-93.30723539826374,-35.96887296445355,-131.50215139507708
-93.07916607622622,-36.55501118252188,60.76984201108899
-92.84741478786258,-37.13970338075679,-104.80404086218545
-92.6119907006426,-37.722926430276964,452.97319621618186
-92.37290312732227,-38.30465726031674,142.4496043966863
-92.13016152557542,-38.88487285913872,-64.09336385148438
-91.88377549761962,-39.46355027494405,82.08106878620787
-91.63375478983633,-40.04066661678035,298.8429931428257
-91.38010929238534,-40.6161990554472,84.4150436283626
-91.1228490388136,-41.19012482439922,144.42043623984313
-90.86198420565822,-41.762421220646644,50.74787622717219
-90.59752511204402,-42.33306560565339,-128.4633855891365
-90.32948221927523,-42.90203540623263,101.9871598796674
-90.05786613042184,-43.469308115439546,105.25432335136713
-89.78268758989992,-44.034861293461915,-78.6154385972173
-89.5039574830468,-44.598672568507574,-21.678973027128297
-89.22168683569039,-45.160719637689475,-47.000377825383815
-88.93588681371305,-45.720980267907876,222.75363842352962
-88.64656872260989,-46.279432296729865,-76.02582731487048
-88.35374400704154,-46.83605363326602,-300.5324435599612
-88.05742425038149,-47.39082225904427,-173.45137159046314
-87.75762117425778,-47.94371622888093,394.91110857633635
-87.45434663808945,-48.49471367174873,85.98333020898463
-87.14761263861726,-49.043792791642005,-114.91825989735061
-86.83743130942929,-49.590931868438894,-90.351222703861
-86.52381492048083,-50.13610925876058,-97.52985123516144
-86.20677587760916,-50.67930339682724,20.666617846784334
-85.88632672204261,-51.220492795311415,-141.06571937263737
-85.56248012990469,-51.75965604618782,-59.74870342223235
-85.23524891171242,-52.296771821580215,351.09722727871196
-84.9046460118698,-52.831818874605105,-131.1791244334445
-84.57068450815562,-53.36477604021219,212.97156078268617
-84.2333776112062,-53.8956222360216,-92.0009232683917
-83.89273866399276,-54.424336463157864,111.0349126938364
-83.54878114129367,-54.95089780708056,-177.67949578843837
-83.20151864916139,-55.47528543841167,215.07123015338402
-82.85096492438424,-55.99747861375949,-184.7386740648412
-82.49713383394305,-56.517456676539226,12.390631192102553
-82.14003937446253,-57.03519905779012,-53.293995424776774
-81.77969567165779,-57.55068527698898,-188.75680556943053
-81.4161169797753,-58.06389494286053,-113.9175635554872
-81.04931768102922,-58.57480775418391,159.6697277176401
-80.67931228503244,-59.08340350059578,-61.5636640222691
-80.3061154282226,-59.58966206338974,130.3428260661141
-79.92974187328305,-60.09356341631226,-222.4521612765293
-79.55020650855901,-60.59508762635478,-290.9290207065906
-79.16752434746857,-61.09421485454225,-148.37435048274165
-78.78171052790871,-61.59092535671792,-356.14397333222814
-78.39278031165661,-62.08519948432431,201.44912928365616
-78.00074908376587,-62.57701768518055,147.77197038907383
-77.60563235195791,-63.066360504255705,79.18008161287483
-77.20744574600863,-63.553208584438394,220.72829576646487
-76.80620501712998,-64.03754266730259,166.36521901643678
-76.40192603734695,-64.51934359386932,102.91396626466833
-75.99462479886976,-64.99859230536464,-116.89189410674352
-75.58431741346122,-65.47526984397348,-343.24142902990195
-75.17102011179935,-65.94935735358956,272.6644435129205
-74.75474924283539,-66.42083608056137,53.81146133923465
-74.33552127314704,-66.88968737443392,4.098975926751433
-73.91335278628715,-67.35589268868655,123.11166566855192
-73.48826048212761,-67.8194335814666,-129.87361458081338
-73.0602611761989,-68.28029171631886,-434.9760557175154
-72.62937179902474,-68.73844886291099,-136.88078187728004
-72.19560939545246,-69.19388689775461,142.25943527501147
-71.7589911239788,-69.64658780492215,294.97180689516387
-71.31953425607104,-70.09653367675972,223.44323111170885
-70.87725617548385,-70.54370671459529,-298.972399749136
-70.43217437757167,-70.98808922944283,136.78229505006678
-69.98430646859656,-71.42966364270207,1.83486643448802
-69.53367016503182,-71.8684124868538,80.55038048323196
-69.08028329286113,-72.3043184061509,267.02226694955095
-68.6241637868734,-72.73736415730484,51.281877468590295
-68.16532968995332,-73.1675326101678,15.648515999732943
-67.70379915236767,-73.5948067484103,-23.23756795555245
-67.23959043104729,-74.01916967019432,-235.56845305427342
-66.7727218888649,-74.44060458884185,61.49102445132228
-66.30321199390869,-74.85909483349906,-207.03232390849337
-65.83107931875189,-75.27462384979546,310.3857172474457
-65.35634253971794,-75.68717520049915,-138.02716734824472
-64.87902043614179,-76.09673256616671,-233.241685132358
-64.39913188962686,-76.50327974578897,-119.05039962103015
-63.91669588329856,-76.90680065743162,208.34579664541
-63.4317315010528,-77.30727933887175,141.65960029518521
-62.94425792680158,-77.70469994822885,-212.51787116659307
-62.454294443713934,-78.09904676459172,206.930585784099
-61.96186043345288,-78.49030418864044,212.79924734177834
-61.466975375409284,-78.8784567432631,52.1949191665079
-60.96965884593071,-79.26348907416848,40.9837613636243
-60.46993051754759,-79.64538595049287,176.7783580952517
-59.9678101581945,-80.0241322654032,-194.88963490115506
-59.46331763042871,-80.39971303669401,45.23905164714041
-58.956472890643965,-80.77211340738066,116.29187833194663
-58.44729598828155,-81.14131864628654,-4.5704480477014116
-57.93580706503673,-81.5073141486262,159.8071385169474
-57.422026354062425,-81.87008543658277,-155.56537220458736
-56.90597417916842,-82.22961815988091,283.4817731520882
-56.387670954017786,-82.58589809635431,-164.96387063672398
-55.86713718131925,-82.93891115250824,-34.069659612817425
-55.34439345201586,-83.28864336407734,162.76877897703196
-54.81946044447103,-83.63508089657759,96.63234354816086
-54.29235892364995,-83.97821004585396,208.8155561046692
-53.76310974029877,-84.3180172386222,-134.3368436445662
-53.23173383011922,-84.65448903300604,270.19687594127925
-52.69825221294102,-84.9876121190686,-123.35872498458977
-52.1626859918898,-85.31737331933927,37.79192447404686
-51.625056352552946,-85.64375958933455,106.85786200259156
-51.08538456214089,-85.9667580180745,212.81898992473845
-50.54369196864652,-86.28635582859306,235.57215217644338
-50.00000000000004,-86.60254037844385,-328.68142404825824
-49.454330163221876,-86.9152991601999,-243.70141613332268
-48.90670404357173,-87.2246198019486,-7.988590287537255
-48.35714330369445,-87.53049006778129,-34.18424006490648
-47.80566968276366,-87.83289785827684,71.13648958322041
-47.25230499562121,-88.13183121098069,200.77983374859093
-46.69707113191486,-88.42727830087775,125.35592086047049
-46.13999005523174,-88.7192274408604,-19.286456469407806
-45.58108380223019,-89.00766708219055,-368.90240143616904
-45.02037448176736,-89.29258581495684,200.2594701112987
-44.45788427402534,-89.5739723685255,-94.49941834079453
-43.89363542963309,-89.85181561198671,10.069172589149016
-43.32765026878693,-90.12610455459443,123.34094104868842
-42.759951180366954,-90.39682834620159,32.26227382624956
-42.190560621051944,-90.66397627768893,265.7273994159831
-41.61950111443082,-90.92753778138882,-13.010510770289843
-41.046795250111394,-91.18750243150336,-161.11554288800684
-40.472465682827405,-91.44385994451655,-80.68119998596298
-39.896535131541654,-91.69660017960133,-265.16389772067566
-39.31902637854796,-91.94571313902051,-206.73431547167985
-38.739962268569336,-92.1911889685225,282.40998754265166
-38.15936570785492,-92.43301795773081,-327.20049118546547
-37.57725966327325,-92.67119054052849,-268.93748190745157
-36.9936671614044,-92.90569729543624,-363.9639608407327
-36.40861128762842,-93.1365289459854,515.3537920752965
-35.82211518521283,-93.36367636108459,-280.67160761634017
-35.23420205439648,-93.58713055538118,337.16917232868843
-34.64489515147236,-93.80688268961657,173.2386709339945
-34.05421778786742,-94.02292407097588,-12.656505359532918
-33.462193329220156,-94.23524615343186,-84.6033998801717
-32.868845194456945,-94.44384053808287,32.33780506321686
-32.27419685486495,-94.64869897348524,-83.10614912326493
-31.678271833164338,-94.84981335597949,-145.64984806224876
-31.081093702577146,-95.04717573001115,53.492237504302466
-30.482686085895395,-95.24077828844511,-6.196318534296609
-29.883072654546012,-95.43061337287487,-273.4089313924368
-29.28227712765512,-95.61667347392508,-132.34530388261612
-28.680323271109064,-95.79895123154888,-405.90188754823305
-28.077234896614932,-95.9774394353189,135.40699483389832
-27.473035860758333,-96.15213102471253,-74.2527914726644
-26.867750064059464,-96.32301908939127,-305.59511491520493
-26.26140145002825,-96.49009686947389,188.5390663285098
-25.654014004216524,-96.65335775580412,-106.11322121969253
-25.045611753269913,-96.81279529021187,-181.83871022215
-24.43621876397672,-96.96840316576876,-41.91853722605181
-23.82585914231657,-97.1201752270376,-324.5621011920339
-23.21455703250619,-97.268105470316,304.56056372777005
-22.602336616044983,-97.4121880438736,294.61525129230483
-21.989222110757805,-97.55241724818387,11.272722699152638
-21.37523776983765,-97.68878753614923,314.2926366191935
-20.76040788088557,-97.82129351332082,277.23321095527945
-20.144756764950525,-97.94992993811165,43.59688271971851
-19.528308775567055,-98.07469172200395,268.62283731820906
-18.91108829779164,-98.19557392975067,175.2435499659023
-18.293119747238727,-98.31257177957042,-6.299950156949158
-17.674427569114183,-98.42568064333686,-80.97008951080193
-17.055036237249038,-98.53489604676163,-105.52382417529793
-16.43497025313064,-98.64021366957145,-191.9539175055854
-15.814254144934155,-98.74162934567889,-0.7323800038900684
-15.192912466551595,-98.83913906334728,-70.23394600103973
-14.570969796621222,-98.93273896534934,-40.8455226640197
-13.948450737554596,-99.02242534911984,102.71980972809622
-13.325379914564058,-99.10819466690195,-178.58498487008214
-12.70178197468792,-99.19004352588769,270.7035152240959
-12.077681585816121,-99.26796868835203,-45.299823719076166
-11.453103435714144,-99.34196707178107,-90.19367526514324
-10.828072231046196,-99.41203574899392,-94.50512786499128
-10.20261269639847,-99.47817194825852,-23.007173127388466
-9.576749573300416,-99.54037305340125,-479.09910146736763
-8.95050761924673,-99.59863660391044,270.92331430169384
-8.323911606717305,-99.65296029503367,32.12550342515092
-7.696986322198013,-99.703341977869,-4.297900630770372
-7.0697565651995005,-99.74977965944997,-99.67273841368035
-6.442247147276896,-99.79227150282432,427.6602918420912
-5.814482891047624,-99.83081582712681,-117.0678454674503
-5.186488629210193,-99.86541110764564,-2.26263495693209
-4.558289203561173,-99.89605597588273,185.86492243074593
-3.92990946401314,-99.92274921960794,-188.38623250020345
-3.30137426761141,-99.94548978290693,25.42184655761573
-2.672708477550499,-99.964276766223,235.8381796776899
-2.0439369621912165,-99.97910942639261,71.97728348492983
-1.415084594076232,-99.98998717667489,-111.71430492087062
-0.7861762489468911,-99.99690958677469,183.2064122048967
-0.15723680475848809,-99.99987638285974,-254.8154589796573
0.4717088593031313,-99.9988874475714,225.58911466095884
1.1006358638064344,-99.99394282002937,180.69462208416257
1.729519330057657,-99.98504269583005,-99.00631021779762
2.3583343810856476,-99.97218742703888,112.40752124905933
2.987056142625226,-99.95537752217639,-85.53147439792848
3.615659744101852,-99.93461364619809,44.91243017287355
4.244120319614822,-99.90989662046815,-267.5944600236309
4.87241300892116,-99.88122742272691,168.27168915953106
5.500512958419292,-99.84860718705224,-59.009114558424024
6.128395322131569,-99.81203720381463,-72.12700294268855
6.756035262687816,-99.77151891962615,-284.05192629240446
7.383407952307124,-99.72705393728327,170.4231182768651
8.010488573780679,-99.67864401570343,-349.8303209180733
8.637252321452761,-99.62629106985544,113.9854061054115
9.263674402202696,-99.56999717068378,-94.34146826612157
9.889730036424895,-99.50976454502661,-120.91790766958768
10.515394459009784,-99.44559557552776,-27.49896820387508
11.140642920322735,-99.37749280054243,77.18641660878863
11.765450687183806,-99.30545891403678,6.445546819844547
12.389793043845497,-99.22949676548137,15.56006571380706
13.013645292970711,-99.14960935973849,94.46965244739552
13.636982756609974,-99.06579985694317,-0.044808390741077134
14.259780777177019,-98.97807157237835,-277.24152142525315
14.882014718424877,-98.88642797634357,-81.13421647951782
15.503659966419711,-98.79087269401782,58.182786380318404
16.124691930515198,-98.691409505316,3.6559823140080274
16.745086044324545,-98.58804234473959,38.3898183808969
17.364817766692997,-98.48077530122082,-226.25107072988618
17.983862582667896,-98.36961261796104,49.93728285945517
18.602196004469153,-98.25455869226278,137.2634129327
19.219793572457196,-98.13561807535596,-661.7485734091688
19.836630856101237,-98.01279547221768,-45.727892487151486
20.452683454945074,-97.88609574138614,39.04935700229482
21.067926999572574,-97.75552389476864,-78.80048220846729
21.682337152571897,-97.62108509744296,-290.1306450030504
22.295889609497653,-97.48278466745344,-161.5248983186334
22.90856009983297,-97.34062807560028,15.962154828155233
23.520324387948925,-97.19462094522338,63.38627040567375
24.131158274063893,-97.04476905197971,280.19035245095887
24.74103759520016,-96.89107832361498,-83.83418584014031
25.349938226140434,-96.73355483972902,-114.88291307298172
25.957836080381476,-96.57220483153549,56.25953014403803
26.564707111087582,-96.40703468161507,125.83639308734172
27.170527312041166,-96.23805092366338,-27.853437822267935
27.775272718593,-96.06526024223211,315.33732035139747
28.378919408609672,-95.88866947246498,218.1838850170458
28.981443503420056,-95.70828559982711,353.0282280065265
29.58282116876022,-95.52411575982869,-359.1479731419054
30.183028615715607,-95.33616723774296,43.20313112534932
30.78204210166275,-95.14444746831768,-435.1801682497963
31.379837931207792,-94.94896403548137,-16.528646986994776
31.97639245712449,-94.74972467204299,-144.3214081933736
32.57168208128897,-94.54673725938638,158.87102741245076
33.165683255613864,-94.34000982715813,-130.4985267335638
33.75837248297914,-94.12955055295036,91.4441507535319
34.349726318162276,-93.9153677619768,46.18535141018752
34.939721368765,-93.69746992674384,250.76992212032687
35.528334296139306,-93.47586566671512,282.5811524627349
36.1155418163101,-93.25056374797074,203.77993958688845
36.70132070089648,-93.02157308286046,-60.33158414920583
37.28564777803084,-92.78890272965094,-310.23350495340145
37.86849993327494,-92.55256189216783,440.0252316392896
38.44985411053488,-92.31255991943125,-206.90920977601544
39.02968731297248,-92.06890630528635,-352.606853035316
39.60797660391565,-91.82161068802742,-175.5899754850923
40.184699107765034,-91.57068285001695,179.13241188441728
40.75983201089958,-91.31613271729834,-248.90929115186356
41.33335256257831,-91.0579703592036,-8.623281662657318
41.90523807584094,-90.79620598795464,113.9007254560968
42.47546592840469,-90.53084995825971,153.2506807194979
43.04401356355976,-90.26191276690344,-96.51932652818685
43.61085849106109,-89.98940505233183,-141.01118840293185
44.17597828801825,-89.71333759423143,-634.4239700633993
44.73935059978267,-89.43372131310274,-368.2282967833616
45.30095314083134,-89.15056726982843,-333.9084455218732
45.86076369564906,-88.8638866652356,80.73609255360603
46.41876011960654,-88.57369083965297,-302.37752790515515
46.97492033983705,-88.27999127246198,-72.13372266388957
47.52922235610892,-87.98279958164298,-138.49383976021176
48.08164424169644,-87.68212752331537,89.45951622269794
48.632164144246595,-87.37798699127289,-90.65448495661938
49.18076028664412,-87.07039001651277,-28.516540921796274
49.72741096787232,-86.75934876676018,-204.6882818775312
50.27209456387213,-86.44487554598652,-248.76235597936338
50.81478952839691,-86.12698279392309,24.46249466264707
51.35547439386511,-85.80568308556879,94.80360442497144
51.894127772209565,-85.4809891306926,-271.3003049281831
52.43072835572311,-85.15291377333116,-105.13819822854967
52.965254917902016,-84.82146999128025,-30.047800482912745
53.4976863142851,-84.48667089558182,243.97504737023058
54.028001483290666,-84.14852973000504,14.861765074190448
54.55617944704911,-83.80705987052269,-377.55533165155936
55.08219931223336,-83.46227482478176,-144.65242778486103
55.606040270884684,-83.11418823156941,249.34533750729634
56.12768160123647,-82.76281386027314,-487.99293782571266
56.64710266853338,-82.40816561033645,239.32225469444663
57.16428292584782,-82.05025751070878,170.7582797884507
57.67920191489295,-81.68910371929054,-176.81334290893773
58.19183926683146,-81.32471852237333,166.89023587753593
58.702174703081845,-80.95711633407441,276.2820155048608
59.21018803612005,-80.58631169576695,-418.0308777638817
59.715859170278584,-80.2123192755044,-11.80098690185555
60.21916810254089,-79.83515386744064,75.32264258993908
60.720094923333136,-79.45483039124439,286.7421866230369
61.21861981731129,-79.07136389150942,-121.23811708576217
61.71472306414548,-78.68476953715903,-463.34672930562607
62.20838503929953,-78.29506262084637,-351.683098886665
62.6995862148078,-77.90225855834916,43.57543479972124
63.188307160047195,-77.50637288796017,-87.4749087217261
63.674528542506,-77.10742126987252,80.77286095477352
64.15823112854882,-76.70541948555989,374.12240307949656
64.63939578417687,-76.30038343715277,-144.0298808275333
65.11800347578554,-75.89232914680892,251.9497831297013
65.5940352709167,-75.48127275607995,-209.84693158256985
66.06747233900812,-75.06723052527245,168.5289023317217
66.53829595213787,-74.65021883280527,-149.79074532746205
67.0064874857657,-74.23025417456095,172.73143880651696
67.47202841946918,-73.80735316323396,66.39670819606799
67.93490033767694,-73.3815325276728,354.7706861008081
68.3950849303965,-72.95280911221892,-38.478607638064474
68.85256399393917,-72.52119987603977,219.40501164652582
69.3073194316397,-72.08672189245851,313.1266347968783
69.75933325457224,-71.64939234827837,-60.70182700333832
70.20858758226224,-71.20922854310257,180.67964425557506
70.65506464339319,-70.7662478886505,63.500005864699894
71.0987467765102,-70.32046790806841,-124.38039204770199
71.53961643071813,-69.8719062352368,-281.3485591790556
71.97765616637632,-69.42058061407228,-15.596914535202014
72.41284865578797,-68.96650889782624,-6.884918986635384
72.84517668388605,-68.50970904837811,-336.2300378529948
73.2746231489139,-68.0501991355253,-93.56878379752906
73.7011710631021,-67.58799733626795,-172.39915066149706
74.12480355333994,-67.12312193409035,-168.86304765858463
74.54550386184357,-66.65559131823724,497.4042151851747
74.96325534681823,-66.18542398298682,396.2137067393543
75.3780414831169,-65.71263852691891,-250.25820165790233
75.78984586289408,-65.23725365217912,288.0574371366876
76.19865219625446,-64.75928816373946,96.48203899836358
76.60444431189778,-64.27876096865396,210.0726796470764
77.00720615775806,-63.795691075311254,317.66896543899105
77.40692180163904,-63.310097592682155,115.7165850241505
77.8035754318439,-62.821999729564304,-15.026501605230086
78.19715135780127,-62.3314167938217,77.7283075616338
78.58763401068542,-61.838368191621605,145.25894631289393
78.97500794403257,-61.34287342666622,119.23740372512461
79.35925783435142,-60.84495209942179,399.99625921738226
79.74036848172986,-60.34462390634266,49.14183894014398
80.11832481043574,-59.8419086390927,173.55831464514148
80.49311186951344,-59.33682618376209,50.918626235389986
80.86471483337549,-58.829396520080536,375.0776764922931
81.23311900238855,-58.31963972062739,-340.60101394795964
81.59830980345544,-57.807575950037105,-29.02139440380374
81.9602727905911,-57.29322546420206,39.03744866247605
82.3189936454945,-56.77660860947081,-296.4994468025451
82.67445817811459,-56.257745821843784,-170.85782704716738
83.02665232721205,-55.73665762616425,26.904170006653416
83.37556216091511,-55.2133646353071,-72.71763568589998
83.72117387727104,-54.68788754936279,164.839547015256
84.06347380479176,-54.16024715481909,-119.81916272418363
84.402448402995,-53.6304643237383,86.1029306912307
84.73808426293961,-53.09856001293205,-57.17770617616694
85.07036810775611,-52.56455526313213,-83.0996368663267
85.39928679317205,-52.02847119815792,-133.1839944741246
85.72482730803164,-51.490329024081326,157.04683582537632
86.04697677481074,-50.95015002838734,165.8531901317608
86.36572245012601,-50.40795557913253,277.51902837778624
86.68105172523927,-49.86376712409918,120.93174281339112
86.99295212655592,-49.31760618994752,219.18129030432632
87.30141131611879,-48.7694943813635,26.669300304363514
87.60641709209577,-48.219453380204854,27.957217337636543
87.90795738926286,-47.66750494464279,197.02324014329776
88.2060202794811,-47.11367090830188,110.32217571114136
88.5005939721687,-46.557973179395766,-181.99441389461066
88.7916668147673,-46.000433739861116,91.42070698582594
89.0792272932028,-45.441074644487806,-17.624480875678987
89.36326403234122,-44.87991802004625,-165.5716994177939
89.64376579643813,-44.316986064412674,99.7373205755209
89.92072148958367,-43.75230104569046,-127.53232220611008
90.19412015614093,-43.18588530132981,86.0970222747623
90.46395098117979,-42.61776123724357,-229.89198823079528
90.7302032909044,-42.04795132692152,-62.03045423833935
90.99286655307566,-41.47647811054075,-30.782490859331286
91.25193037742757,-40.90336419407468,275.3274079726454
91.50738451607859,-40.32863224839818,-151.13561707413265
91.75921886393661,-39.75230500839139,130.9322139269772
92.0074234590991,-39.17440527203979,-492.6768761449404
92.25198848324686,-38.5949558995329,129.75215246098216
92.49290426203248,-38.013979812359736,-159.16250715107984
92.73016126546322,-37.43149999240192,-125.70899572295514
92.9637501082777,-36.847539481025066,110.45934123270035
93.19366155031737,-36.262121378166725,82.29736849655897
93.41988649689195,-35.67526884142326,18.36405208193265
93.64241599913922,-35.08700508513309,-45.71249751833298
93.8612412543789,-34.49735337945914,95.63405083503464
94.07635360646108,-33.906337049467574,369.5402741375264
94.28774454610839,-33.31397947420585,-186.19393965669602
94.49540571125281,-32.720304085777215,-16.185832885140336
94.69932888736629,-32.12533436841447,48.583507195235924
94.89950600778585,-31.52909385755031,98.74646037159253
95.09592915403252,-30.931606138886913,40.108824493662695
95.28859055612465,-30.332894847462732,-165.25652732924655
95.47748259288534,-29.73298366671726,215.206879706835
95.66259779224376,-29.131896327554795,69.6953990703857
95.84392883153086,-28.52965660740502,-57.088937633189964
96.02146853776891,-27.92628832928309,-3.7899243803089138
96.19520988795547,-27.321815360846628,-184.14586074781667
96.36514600934085,-26.716261613452225,168.8988291704208
96.53127017970033,-26.109651041208874,210.78614389035968
96.69357582759982,-25.502007640031145,183.2353974737831
96.85205653265598,-24.89335544668922,284.55833287097175
97.00670602579007,-24.283718537858732,470.2890158152032
97.15751818947601,-23.673121029168044,38.03818247262084
97.30448705798239,-23.061587074244045,-327.25796786052126
97.4476068176083,-22.449140863757332,39.15671325262655
97.5868718069136,-21.835806624464578,-90.50839462282404
97.72227651694254,-21.22160861825087,-120.29552986926252
97.85381559144196,-20.606571141169297,-208.83843635712935
97.98148382707292,-19.990718522480545,285.4382339760944
98.1052761736168,-19.374075123689813,156.02383665746572
98.2251877341748,-18.756665337583808,-276.7220145120058
98.34121376536186,-18.138513587265162,-168.11255328367739
98.45334967749417,-17.519644325187002,-45.232189597566276
98.56159103477083,-16.90008203218497,151.49600249676075
98.66593355544919,-16.279851216509456,-35.79445345592415
98.76637311201432,-15.658976412855838,190.60543881646996
98.86290573134227,-15.037482181393699,-47.449031746342136
98.95552759485719,-14.415393106795907,-22.668922062236433
99.04423503868244,-13.792733797265393,-224.8697730743285
99.12902455378553,-13.169528883562446,-162.45652072079983
99.20989278611684,-12.545803018029646,55.326635475335706
99.28683653674237,-11.921580873617426,-154.28651485333796
99.35985276197029,-11.296887142907334,-33.840807951149394
99.42893857347129,-10.671746537135988,184.79036309406393
99.49409123839288,-10.04618378521685,118.20718414702034
99.55530817946745,-9.42022363276273,-109.48735194867687
99.6125869751143,-8.793890841106188,-109.91158669849798
99.6659253595353,-8.167210186320688,-246.11597249186582
99.71532122280463,-7.54020645824023,81.81251747466912
99.76077261095226,-6.912904459478485,290.6555974386696
99.80227772604111,-6.285329004448273,222.79058176573395
99.8398349262383,-5.6575049183792725,46.2406827417054
99.87344272588005,-5.029457036336704,138.60217887270267
99.90309979553044,-4.401210202238211,127.63253788789481
99.92880496203401,-3.77278926787181,-179.05748259312034
99.95055720856215,-3.1442190919121114,97.35115451853467
99.96835567465338,-2.515524538937684,257.4975298072629
99.98219965624732,-1.8867304784467676,-301.10209034750324
99.99208860571255,-1.257861783874212,46.48004586763675
99.99802213186832,-0.6289433316068405,173.2691657667609
100.0,-2.4492935982947064e-14,6.311856357238918
100.0,0.0,-428.4452822907702
99.99802213186832,0.6289433316067751,192.5390235248197
99.99208860571255,1.2578617838741057,12.179858410419607
99.98219965624732,1.886730478446709,64.93331604064612
99.96835567465338,2.515524538937585,42.785565645124485
99.95055720856215,3.1442190919120603,89.68758154065033
99.92880496203401,3.772789267871718,-27.483165653875353
99.90309979553044,4.4012102022381665,-24.91972525235007
99.87344272588005,5.029457036336618,7.531715794491381
99.83983492623831,5.657504918379234,-95.74641886972876
99.80227772604111,6.285329004448194,-87.39612010242048
99.76077261095226,6.9129044594784546,-25.441680614850213
99.71532122280465,7.540206458240159,191.82730159707958
99.6659253595353,8.167210186320663,233.50927422358825
99.6125869751143,8.793890841106125,494.53862632353724
99.55530817946746,9.420223632762625,-158.94089314988864
99.49409123839288,10.046183785216794,65.30122809166721
99.4289385734713,10.671746537135888,11.701669466029808
99.35985276197029,11.296887142907282,-10.069532983080967
99.28683653674237,11.921580873617335,19.946576073835374
99.20989278611685,12.545803018029602,25.592035161716574
99.12902455378554,13.169528883562359,6.394064986870568
99.04423503868246,13.792733797265358,-74.24359814868268
98.9555275948572,14.415393106795829,-134.57069416896397
98.86290573134227,15.037482181393669,123.34151239991633
98.76637311201432,15.658976412855766,-34.52173787216466
98.6659335554492,16.27985121650943,-147.79198333046807
98.56159103477084,16.90008203218491,80.20107665358536
98.4533496774942,17.5196443251869,-26.502088252068912
98.34121376536187,18.138513587265106,113.71403924444337
98.22518773417481,18.756665337583716,260.9642304903119
98.1052761736168,19.374075123689764,-292.8373546653549
97.98148382707295,19.990718522480456,-190.54540277438932
97.85381559144196,20.606571141169255,-84.95772921172096
97.72227651694256,21.221608618250787,-17.39705900682801
97.5868718069136,21.835806624464542,368.29902993039826
97.44760681760832,22.449140863757258,-485.62691566529077
97.30448705798239,23.061587074244013,-30.077277196222884
97.15751818947602,23.673121029167973,114.96288853019567
97.00670602579008,24.283718537858714,-117.02717147461755
96.85205653265598,24.89335544668916,135.6109864999428
96.69357582759983,25.502007640031042,78.89624823177411
96.53127017970033,26.10965104120882,-177.4592264389653
96.36514600934086,26.71626161345213,284.80985285429296
96.19520988795549,27.321815360846585,-159.90316653337834
96.02146853776895,27.926288329283004,110.1527211653255
95.84392883153086,28.529656607404974,166.04769325720207
95.66259779224377,29.131896327554717,154.54961566646043
95.47748259288535,29.732983666717228,281.81553242555697
95.28859055612467,30.332894847462665,226.24000740412527
95.09592915403253,30.931606138886885,-360.92599089505535
94.89950600778587,31.529093857550244,-16.253485409599033
94.69932888736633,32.125334368414364,-19.585354671383776
94.49540571125283,32.72030408577716,95.46952729276414
94.28774454610843,33.31397947420576,-191.20479214976345
94.0763536064611,33.90633704946752,101.58184360110238
93.86124125437894,34.49735337945904,-189.440735363308
93.64241599913925,35.08700508513305,69.54620062875084
93.41988649689198,35.67526884142317,9.421479806402907
93.1936615503174,36.26212137816669,148.370235192325
92.96375010827771,36.84753948102499,213.42978677272745
92.73016126546322,37.43149999240188,242.85955276654255
92.49290426203251,38.013979812359665,130.14176721188906
92.25198848324688,38.59495589953287,-167.83852502474696
92.00742345909913,39.17440527203973,300.53480097005394
91.75921886393665,39.75230500839129,255.11891557391505
91.5073845160786,40.32863224839812,12.885001933900009
91.25193037742761,40.903364194074584,-260.7779405810171
90.99286655307569,41.4764781105407,-136.50432281404935
90.73020329090444,42.04795132692143,-340.825810308059
90.4639509811798,42.61776123724353,-33.68851484593904
90.19412015614095,43.185885301329726,186.00824640796014
89.92072148958368,43.75230104569043,134.7177857381744
89.64376579643817,44.31698606441261,-146.19587686528993
89.36326403234122,44.87991802004621,103.30044849107847
89.07922729320283,45.44107464448774,105.38932493762813
88.7916668147673,46.000433739861094,-87.17132220955864
88.50059397216874,46.55797317939571,165.49013508536066
88.20602027948115,47.11367090830178,-281.4989751588585
87.90795738926289,47.66750494464274,-225.62187261597023
87.60641709209582,48.21945338020477,-264.2471217963376
87.30141131611883,48.76949438136345,-510.9698390080534
86.99295212655596,49.31760618994744,-151.06420023154504
86.68105172523929,49.86376712409915,152.8002457910503
86.36572245012607,50.407955579132455,206.29257967639617
86.04697677481077,50.95015002838732,-2.003375099850474
85.72482730803168,51.49032902408126,-322.56468034382794
85.39928679317208,52.02847119815789,35.50022393922034
85.07036810775614,52.56455526313207,-192.07269101595244
84.73808426293962,53.098560012932026,-27.595350383011922
84.40244840299503,53.63046432373824,135.19824463684836
84.06347380479183,54.160247154819,280.6760196449477
83.72117387727107,54.687887549362735,169.19177224734733
83.37556216091517,55.213364635307016,238.64140899313267
83.02665232721208,55.73665762616421,0.741654033758059
82.67445817811463,56.257745821843706,-43.83632928589089
82.31899364549453,56.77660860947078,-174.68701106245476
81.96027279059116,57.29322546420199,543.2557962355667
81.59830980345546,57.80757595003707,-282.3208103123441
81.2331190023886,58.31963972062732,112.70841540149357
80.8647148333755,58.8293965200805,-244.70383027881462
80.49311186951348,59.336826183762035,112.02639596873678
80.11832481043575,59.84190863909268,-92.78215646430566
79.7403684817299,60.34462390634261,67.02683857051616
79.3592578343515,60.844952099421704,-229.05207370180273
78.9750079440326,61.34287342666618,-12.144682469439735
78.58763401068549,61.83836819162153,109.61261617933911
78.1971513578013,62.33141679382166,-19.168744622808795
77.80357543184395,62.821999729564226,36.0208121746455
77.40692180163907,63.310097592682126,54.69218029291066
77.00720615775812,63.795691075311176,165.96651967462287
76.60444431189781,64.27876096865393,-272.5903226371191
76.19865219625451,64.7592881637394,-45.75716750981943
75.7898458628941,65.23725365217909,-11.103980614975262
75.37804148311696,65.71263852691885,-207.9409599961474
74.96325534681826,66.1854239829868,-112.92464501145689
74.54550386184363,66.6555913182372,255.01766086330858
74.12480355334003,67.12312193409026,182.6816910127483
73.70117106310214,67.5879973362679,5.25216722475731
73.27462314891399,68.05019913552523,219.77803589178592
72.8451766838861,68.50970904837808,-65.21452712977172
72.41284865578803,68.96650889782619,-22.02899471688058
71.97765616637636,69.42058061407225,-45.75841528793499
71.5396164307182,69.87190623523674,5.783819218933024
71.09874677651024,70.32046790806838,-218.0812911218244
70.65506464339325,70.76624788865044,-132.06417345764564
70.20858758226225,71.20922854310253,86.32174043143915
69.7593332545723,71.64939234827831,-332.9841125346097
69.30731943163971,72.0867218924585,-213.73192013231207
68.85256399393921,72.52119987603972,317.76636411100026
68.39508493039656,72.95280911221884,-448.4295670289188
67.93490033767698,73.38153252767276,-340.2259452082799
67.47202841946927,73.80735316323388,-62.43541053934296
67.00648748576573,74.23025417456093,260.1149193915894
66.53829595213794,74.6502188328052,-10.152786577035258
66.06747233900815,75.06723052527244,166.63764037459273
65.59403527091678,75.48127275607987,-9.391484811227652
65.11800347578559,75.89232914680888,-39.79644610445056
64.63939578417694,76.30038343715273,0.1629052134188268
64.15823112854883,76.70541948555987,490.8880374122347
63.67452854250606,77.10742126987246,-210.31287854567807
63.188307160047216,77.50637288796015,168.43287350002797
62.69958621480786,77.90225855834912,-196.59306478136688
62.20838503929961,78.29506262084631,-22.711775772486593
61.714723064145524,78.684769537159,-121.79577528936707
61.21861981731137,79.07136389150938,-245.39955346729067
60.720094923333164,79.45483039124437,-262.9844526912006
60.219168102540955,79.8351538674406,-71.30565094667264
59.71585917027863,80.21231927550437,-271.11566205587906
59.210188036120115,80.58631169576691,29.32133430089853
58.702174703081866,80.9571163340744,3.0291757750463417
58.19183926683152,81.32471852237329,183.43878138589633
57.67920191489297,81.68910371929053,-69.44679912496501
57.16428292584788,82.05025751070875,525.5830636139762
56.6471026685334,82.40816561033644,-57.71451482202543
56.127681601236525,82.76281386027311,-183.01134486400352
55.60604027088476,83.11418823156936,-72.65154363875172
55.082199312233406,83.46227482478173,152.46314554631314
54.5561794470492,83.80705987052264,-335.49107749266045
54.0280014832907,84.14852973000502,124.40359216484987
53.497686314285176,84.48667089558177,-58.09992961792645
52.96525491790206,84.82146999128022,-64.2911689778348
52.43072835572319,85.15291377333112,41.09966379038904
51.8941277722096,85.48098913069259,152.8816054402435
51.355474393865165,85.80568308556875,-57.96941264468024
50.81478952839693,86.12698279392308,256.00279355704674
50.27209456387218,86.44487554598649,97.54429274859318
49.72741096787242,86.75934876676013,-213.43586321634277
49.18076028664418,87.07039001651275,-67.8446025514257
48.632164144246694,87.37798699127283,55.500772665462314
48.08164424169648,87.68212752331536,-266.0823719380832
47.529222356108995,87.98279958164294,-250.99365355687686
46.97492033983709,88.27999127246196,-420.9588110557805
46.418760119606624,88.57369083965293,55.25638775488545
45.8607636956491,88.86388666523558,322.3578286326866
45.300953140831425,89.15056726982839,198.45449948683404
44.73935059978269,89.43372131310272,142.9781617390368
44.17597828801832,89.7133375942314,187.82723238300616
43.61085849106111,89.98940505233182,15.859255173508044
43.044013563559815,90.2619127669034,369.47589789026745
42.475465928404795,90.53084995825967,-26.885590423869242
41.90523807584101,90.79620598795461,-27.725196075880515
41.33335256257842,91.05797035920355,-100.64623330791815
40.75983201089963,91.31613271729833,369.45090949141786
40.18469910776512,91.57068285001692,92.69044591169762
39.60797660391569,91.8216106880274,159.31644397110702
39.02968731297256,92.0689063052863,-203.7164294459033
38.44985411053492,92.31255991943122,-211.42934120590064
37.868499933275025,92.55256189216779,429.92754685780284
37.285647778030864,92.78890272965093,162.8252716228619
36.70132070089654,93.02157308286041,330.27188887898967
36.11554181631012,93.25056374797074,-46.54253987425704
35.52833429613938,93.4758656667151,-287.0797925359533
34.939721368765106,93.6974699267438,120.58042727316804
34.34972631816235,93.91536776197677,-399.0752125322663
33.75837248297925,94.12955055295032,19.087702193453463
33.16568325561391,94.34000982715813,-69.97248955515715
32.57168208128906,94.54673725938633,99.62937646522086
31.976392457124536,94.74972467204297,-299.7849423114278
31.379837931207877,94.94896403548132,-7.4634541735919
30.782042101662793,95.14444746831767,333.1098035534536
30.183028615715696,95.33616723774293,-454.542352473037
29.582821168760248,95.52411575982869,-108.09918624512034
28.981443503420124,95.70828559982708,-285.14277106369354
28.378919408609693,95.88866947246497,-508.3978918202942
27.77527271859307,96.0652602422321,-332.1430631531773
27.170527312041276,96.23805092366334,-190.94759576304665
26.56470711108765,96.40703468161506,-472.28398823241804
25.95783608038158,96.57220483153546,-15.50229488766238
25.349938226140477,96.73355483972902,-135.24319737725523
24.74103759520025,96.89107832361495,-172.69838655997708
24.131158274063942,97.0447690519797,-33.08506649975603
23.520324387949014,97.19462094522335,-44.603892262334966
22.908560099833018,97.34062807560026,-3.346793048393338
22.295889609497742,97.48278466745342,-119.57708262702424
21.68233715257192,97.62108509744296,-119.67906320091907
21.06792699957264,97.75552389476861,-239.92635764933317
20.4526834549451,97.88609574138614,133.79001858903914
19.836630856101305,98.01279547221765,252.65319410800663
19.21979357245731,98.13561807535595,178.99168802845543
18.602196004469224,98.25455869226278,192.35985606199318
17.98386258266799,98.36961261796101,41.62449823860203
17.36481776669304,98.4807753012208,76.6057154998866
16.745086044324637,98.58804234473958,-50.50623915305243
16.12469193051524,98.691409505316,167.320348351444
15.503659966419804,98.7908726940178,-105.74748272401804
14.882014718424925,98.88642797634357,-77.65269968424016
14.259780777177111,98.97807157237834,-289.7407042209105
13.63698275661,99.06579985694317,-77.89395861101006
13.01364529297078,99.14960935973848,-84.68068247942196
12.389793043845522,99.22949676548136,85.68846928775984
11.765450687183874,99.30545891403678,-324.76289242308053
11.140642920322849,99.37749280054243,-272.05395918772285
10.515394459009853,99.44559557552776,-273.23689792668546
9.889730036424986,99.5097645450266,-246.6471374103941
9.263674402202742,99.56999717068376,-45.953896117800355
8.637252321452852,99.62629106985543,51.29734646974802
8.010488573780725,99.67864401570343,385.5432027173988
7.383407952307214,99.72705393728327,-116.95855580631999
6.756035262687862,99.77151891962615,4.756917077498835
6.128395322131638,99.81203720381463,-177.55195959980048
5.500512958419316,99.84860718705224,-163.95612901212496
4.872413008921228,99.88122742272691,8.934559855339762
4.244120319614846,99.90989662046815,-73.79612287157708
3.6156597441019205,99.93461364619809,288.10744964988265
2.9870561426253386,99.95537752217638,-59.142529619129235
2.3583343810857165,99.97218742703888,362.1469204456868
1.729519330057748,99.98504269583005,-214.0888967700442
1.1006358638064813,99.99394282002937,-54.70605873876866
0.47170885930322237,99.9988874475714,233.35881075055025
-0.1572368047584414,99.99987638285974,-404.2715088887463
-0.7861762489468,99.99690958677469,-64.14382996335446
-1.4150845940761854,99.98998717667489,113.82908379060686
-2.0439369621911476,99.97910942639263,149.7568877118172
-2.6727084775504744,99.964276766223,230.3039332053522
-3.3013742676113416,99.94548978290693,105.56551200592604
-3.929909464013115,99.92274921960794,23.000156440026547
-4.558289203561104,99.89605597588275,-246.58536598335786
-5.18648862921008,99.86541110764566,-373.3741226094472
-5.814482891047555,99.83081582712681,-321.5757925107498
-6.442247147276806,99.79227150282432,402.819455759147
-7.069756565199453,99.74977965944997,-230.52839286919416
-7.6969863221979224,99.70334197786902,565.7285154221214
-8.323911606717257,99.65296029503368,162.8533764721445
-8.950507619246638,99.59863660391044,341.8662451316313
-9.576749573300368,99.54037305340125,282.11367296986293
-10.202612696398402,99.47817194825853,87.64889918315724
-10.828072231046173,99.41203574899393,-278.87497867982097
-11.453103435714077,99.34196707178107,114.18346008180092
-12.077681585816096,99.26796868835203,479.06276410801433
-12.701781974687854,99.19004352588769,-111.96990991400921
-13.325379914563944,99.10819466690197,-213.99057083991067
-13.94845073755453,99.02242534911986,287.0685310025205
-14.570969796621133,98.93273896534936,38.233892617828126
-15.192912466551547,98.83913906334728,174.43238400359357
-15.814254144934065,98.74162934567889,-253.75541927705035
-16.434970253130594,98.64021366957147,309.2495671244539
-17.055036237248945,98.53489604676166,34.134521440165685
-17.674427569114137,98.42568064333686,368.4101202493267
-18.293119747238656,98.31257177957042,202.5388565726662
-18.91108829779162,98.19557392975067,409.62523910413654
-19.528308775566984,98.07469172200398,-56.95468088987139
-20.144756764950504,97.94992993811165,-133.99191868033603
-20.760407880885502,97.82129351332085,-117.99001496424108
-21.375237769837536,97.68878753614926,110.15843343436875
-21.98922211075776,97.55241724818387,-73.26006943004359
-22.602336616044894,97.41218804387363,-290.723853403018
-23.214557032506143,97.26810547031602,27.39858604008204
-23.82585914231648,97.12017522703763,-80.09188486866027
-24.436218763976672,96.96840316576876,-187.59645497074865
-25.045611753269824,96.81279529021188,211.52214824703276
-25.65401400421648,96.65335775580415,125.46447533734282
-26.26140145002818,96.4900968694739,49.317284014488976
-26.867750064059443,96.32301908939127,-48.92426035840003
-27.473035860758266,96.15213102471255,-36.83312154901294
-28.07723489661491,95.97743943531891,168.52769050368596
-28.680323271109,95.79895123154888,-265.4005206657454
-29.28227712765501,95.6166734739251,-423.46355599967086
-29.883072654545966,95.43061337287489,-114.32411031275971
-30.482686085895306,95.24077828844514,-47.379158320497694
-31.0810937025771,95.04717573001116,-4.351540194880281
-31.678271833164256,94.84981335597953,-375.31057375404606
-32.274196854864904,94.64869897348525,-23.606054306188533
-32.86884519445686,94.4438405380829,158.06170015732198
-33.462193329220135,94.23524615343186,104.41088337494438
-34.05421778786735,94.0229240709759,-161.51720305173924
-34.64489515147234,93.80688268961659,110.86609664847211
-35.23420205439641,93.58713055538121,97.68362407527077
-35.82211518521272,93.36367636108463,-367.3056227671598
-36.408611287628354,93.13652894598543,-166.16432604032337
-36.9936671614043,92.90569729543628,412.4387966042365
-37.57725966327321,92.6711905405285,182.64033125269123
-38.15936570785484,92.43301795773084,-58.448424561540826
-38.739962268569286,92.19118896852252,-92.53101595998639
-39.319026378547875,91.94571313902054,-34.25685251924932
-39.89653513154161,91.69660017960135,149.1440655630381
-40.47246568282733,91.44385994451657,-536.0112868144164
-41.04679525011137,91.18750243150338,-74.50263280152058
-41.619501114430754,90.92753778138885,-70.71675566821935
-42.19056062105192,90.66397627768895,-358.46924461132414
-42.7599511803669,90.39682834620162,59.3794234164029
-43.32765026878683,90.12610455459448,31.018789393717178
-43.89363542963303,89.85181561198674,23.165688296919743
-44.45788427402524,89.57397236852556,65.49569460232263
-45.0203744817673,89.29258581495687,141.41610108587167
-45.58108380223009,89.00766708219061,-43.001804233458444
-46.139990055231685,88.71922744086042,-128.84344155764705
-46.697071131914804,88.42727830087777,241.69410808924542
-47.25230499562119,88.1318312109807,175.07778882542425
-47.80566968276359,87.83289785827687,-224.38363907806757
-48.35714330369443,87.5304900677813,282.24026691086726
