-95.93317304373701,28.228112047397218,99.32034527735087
-96.10881444044027,27.62418843790745,59.75996723271609
-96.28065402591844,27.019172088378223,33.65451713151896
-96.4486850026507,26.413086931660644,40.2540366799588
-96.61290072377479,25.805956942885043,-67.54338413158337
-96.77329469334988,25.19780613851254,39.3918673868898
-96.92986056661354,24.588658575385054,91.01037506062599
-97.08259215023276,23.97853834977363,10.699650955986371
-97.23148340254889,23.367469596425277,-53.224886441873196
-97.37652843381667,22.755476487608277,14.505284382980065
-97.5177215064372,22.142583232155953,39.09781523620458
-97.65505703518492,21.52881407450908,-8.745505117400725
-97.7885295874285,20.914193293756785,33.88086440230492
-97.91813388334579,20.298745202676187,-16.150710302400768
-98.04386479613268,19.682494146770555,80.57116546675215
-98.1657173522058,19.06546450330647,94.26502480436997
-98.28368673139948,18.447680680349254,-74.80853551726281
-98.39776826715615,17.829167115797617,7.076138653910476
-98.50795744671115,17.209948276416927,-51.37815014431659
-98.61424991127114,16.590048656871364,-52.282848583597755
-98.71664145618657,15.969492778754976,-99.50684391752344
-98.81512803111795,15.348305189621664,-54.34335068304712
-98.90970574019613,14.726510462014156,-91.20989053279635
-99.00037084217638,14.104133192491975,63.628559120289765
-99.08711975058637,13.48119800065847,5.834757938220591
-99.16994903386806,12.857729528186917,85.20763376478408
-99.2488554155135,12.23375243784573,-92.2575612218171
-99.32383577419431,11.609291412523035,59.77854502061322
-99.39488714388523,10.984371154250018,-30.068661052948855
-99.46200671398148,10.35901638322395,-78.67091245063567
-99.5251918294099,9.733251836830286,-32.47973619631553
-99.58443999073397,9.107102268664109,-6.31502070026508
-99.63974885425266,8.48059244755095,2.5589696375893
-99.69111623209321,7.853747156566997,15.727976976622784
-99.73854009229761,7.226591192058739,-28.53274683977712
-99.78201855890308,6.599149362662092,-0.06974069574290809
-99.82154991201608,5.971446488321034,58.88186836252717
-99.8571325878806,5.343507399305791,-2.0881346611245135
-99.88876517893978,4.715356935230619,79.99594451768772
-99.91644643389176,4.087019944071169,8.674368591902649
-99.94017525773913,3.4585212811817465,-84.46747306860266
-99.95995071183216,2.8298858083118277,87.16479893793542
-99.97577201390607,2.2011383926227786,22.491108048221136
-99.98763853811184,1.5723039057041255,34.48394798376626
-99.9955498150411,0.9434072225897046,91.57369325213915
-99.99950553174459,0.31447322077366874,-71.60629399584349
-99.99950553174459,-0.31447322077359985,2.3088826286805926
-99.9955498150411,-0.9434072225896357,66.23719511513522
-99.98763853811184,-1.5723039057040564,-48.75604471788011
-99.97577201390607,-2.2011383926227093,30.908224008919916
-99.95995071183216,-2.829885808311759,91.59814584491716
-99.94017525773914,-3.4585212811816777,-43.72793199639708
-99.91644643389178,-4.0870199440711446,-66.00822063530237
-99.88876517893979,-4.715356935230551,64.0074962302121
-99.8571325878806,-5.3435073993057225,-49.40123103517644
-99.8215499120161,-5.971446488320965,-16.59902057450651
-99.78201855890308,-6.599149362662023,41.75241721235773
-99.73854009229763,-7.226591192058669,-83.15284192284278
-99.69111623209321,-7.853747156566928,67.64277429902577
-99.63974885425266,-8.480592447550881,50.31056048028614
-99.58443999073397,-9.107102268664041,-98.74807842628155
-99.5251918294099,-9.733251836830219,-63.31845556647464
-99.46200671398148,-10.359016383223883,82.36582308641297
-99.39488714388524,-10.98437115424995,-73.11674771150594
-99.32383577419431,-11.609291412522968,-89.99018190212988
-99.2488554155135,-12.233752437845705,-87.47731901913123
-99.16994903386808,-12.857729528186848,-56.8927136614594
-99.08711975058637,-13.4811980006584,-74.75809587725473
-99.0003708421764,-14.104133192491908,-85.9099653289945
-98.90970574019615,-14.726510462014087,-85.43483790057984
-98.81512803111796,-15.348305189621595,-65.77446091666519
-98.71664145618658,-15.969492778754907,81.63709524294799
-98.61424991127116,-16.590048656871296,-28.890241031869564
-98.50795744671116,-17.20994827641686,92.41528808253744
-98.39776826715617,-17.82916711579755,50.77269854520469
-98.28368673139948,-18.447680680349183,74.71590338149991
-98.16571735220583,-19.065464503306405,15.77652685550784
-98.04386479613268,-19.682494146770484,-92.87165912905118
-97.9181338833458,-20.298745202676116,54.95796423604898
-97.78852958742851,-20.914193293756718,-15.888794589363059
-97.65505703518494,-21.528814074509008,-71.99681177816274
-97.51772150643723,-22.14258323215589,19.259058778734953
-97.37652843381669,-22.75547648760821,77.88862348243697
-97.2314834025489,-23.36746959642521,5.998053402971067
-97.08259215023277,-23.97853834977356,74.62147931906779
-96.92986056661356,-24.58865857538499,-72.78846756149625
-96.7732946933499,-25.197806138512473,-37.74119823710744
-96.61290072377481,-25.80595694288498,-43.55256137388501
-96.44868500265072,-26.41308693166058,-57.814209532394
-96.28065402591845,-27.019172088378156,5.179543018290914
-96.1088144404403,-27.62418843790738,-16.8254220883548
-95.93317304373701,-28.228112047397154,-62.26326143050576
-95.75373678371909,-28.830919027222162,83.49044133413298
-95.5705127584117,-29.432585531928158,30.919526523994648
-95.38350821567406,-30.03308776117502,38.75980219150222
-95.19273055291266,-30.632401960678312,-90.50343694181106
-94.99818731678872,-31.230504423148915,10.023273317825357
-94.79988620291955,-31.82737148923082,38.26962060840688
-94.59783505557425,-32.422979548437056,62.33904941475291
-94.3920418673633,-33.017305040083635,-28.328045400806047
-94.18251477892251,-33.61032445422156,-19.00946663215899
-93.96926207859086,-34.20201433256682,-21.06783640736765
-93.75229220208277,-34.79235126942834,-45.49070663082444
-93.5316137321543,-35.381311912633855,98.37431463037632
-93.30723539826374,-35.96887296445355,78.79416132523022
-93.07916607622622,-36.55501118252188,99.44266428471084
-92.84741478786258,-37.13970338075679,-21.51677287919611
-92.6119907006426,-37.722926430276964,-83.32644099380207
-92.37290312732227,-38.30465726031674,56.966400790372944
-92.13016152557542,-38.88487285913872,54.10792183987061
-91.88377549761962,-39.46355027494405,11.961158959438094
-91.63375478983633,-40.04066661678035,-4.643251306260225
-91.38010929238534,-40.6161990554472,94.82777284489444
-91.1228490388136,-41.19012482439922,-42.97796507706162
-90.86198420565822,-41.762421220646644,-97.7823660257532
-90.59752511204402,-42.33306560565339,93.6523998454251
-90.32948221927523,-42.90203540623263,67.77065651771176
-90.05786613042184,-43.469308115439546,-49.482865056247306
-89.78268758989992,-44.034861293461915,57.506300732639374
-89.5039574830468,-44.598672568507574,24.990427261742383
-89.22168683569039,-45.160719637689475,87.1327570778804
-88.93588681371305,-45.720980267907876,-10.605105404784055
-88.64656872260989,-46.279432296729865,28.708992109300368
-88.35374400704154,-46.83605363326602,81.90586478145468
-88.05742425038149,-47.39082225904427,-45.360866447000994
-87.75762117425778,-47.94371622888093,-93.55323260638788
-87.45434663808945,-48.49471367174873,-25.42537438433503
-87.14761263861726,-49.043792791642005,52.43859667790761
-86.83743130942929,-49.590931868438894,-50.89880333767185
-86.52381492048083,-50.13610925876058,64.00441457077835
-86.20677587760916,-50.67930339682724,-95.26000285009934
-85.88632672204261,-51.220492795311415,-97.70642606542042
-85.56248012990469,-51.75965604618782,-25.11629676520475
-85.23524891171242,-52.296771821580215,65.49918297804669
-84.9046460118698,-52.831818874605105,-93.5122679365642
-84.57068450815562,-53.36477604021219,40.32388193376414
-84.2333776112062,-53.8956222360216,81.75540234478024
-83.89273866399276,-54.424336463157864,41.4817015827924
-83.54878114129367,-54.95089780708056,-15.506411348058677
-83.20151864916139,-55.47528543841167,40.936861986457416
-82.85096492438424,-55.99747861375949,18.197484812676606
-82.49713383394305,-56.517456676539226,-49.69703117312447
-82.14003937446253,-57.03519905779012,17.52217235088098
-81.77969567165779,-57.55068527698898,23.5510579139347
-81.4161169797753,-58.06389494286053,-17.705024810590515
-81.04931768102922,-58.57480775418391,-27.32245858504932
-80.67931228503244,-59.08340350059578,-64.80609732470035
-80.3061154282226,-59.58966206338974,28.364245995020866
-79.92974187328305,-60.09356341631226,-82.67016430544878
-79.55020650855901,-60.59508762635478,-40.45496717689818
-79.16752434746857,-61.09421485454225,-78.65288340592525
-78.78171052790871,-61.59092535671792,41.06943158990208
-78.39278031165661,-62.08519948432431,29.781369459750948
-78.00074908376587,-62.57701768518055,-29.33683976210982
-77.60563235195791,-63.066360504255705,-61.104142146844474
-77.20744574600863,-63.553208584438394,-17.457118578870265
-76.80620501712998,-64.03754266730259,21.281200257491022
-76.40192603734695,-64.51934359386932,-9.48145601922505
-75.99462479886976,-64.99859230536464,-39.21853629793206
-75.58431741346122,-65.47526984397348,77.32324662882505
-75.17102011179935,-65.94935735358956,31.261762264919952
-74.75474924283539,-66.42083608056137,-58.66089098146865
-74.33552127314704,-66.88968737443392,71.00226354766613
-73.91335278628715,-67.35589268868655,-97.01142636188213
-73.48826048212761,-67.8194335814666,74.64669646860642
-73.0602611761989,-68.28029171631886,-81.54759475145737
-72.62937179902474,-68.73844886291099,-32.030108112278796
-72.19560939545246,-69.19388689775461,42.85799670858174
-71.7589911239788,-69.64658780492215,69.21543788594573
-71.31953425607104,-70.09653367675972,5.680749632819101
-70.87725617548385,-70.54370671459529,66.27849403930935
-70.43217437757167,-70.98808922944283,-96.40840612327948
-69.98430646859656,-71.42966364270207,-64.46466456263659
-69.53367016503182,-71.8684124868538,14.977455575273396
-69.08028329286113,-72.3043184061509,21.98482677123937
-68.6241637868734,-72.73736415730484,-68.48542483346085
-68.16532968995332,-73.1675326101678,24.328030682722712
-67.70379915236767,-73.5948067484103,-62.285115798574566
-67.23959043104729,-74.01916967019432,-80.27602266978255
-66.7727218888649,-74.44060458884185,-70.38516025042193
-66.30321199390869,-74.85909483349906,-10.044347283065221
-65.83107931875189,-75.27462384979546,-80.06566411980864
-65.35634253971794,-75.68717520049915,-4.164110612128553
-64.87902043614179,-76.09673256616671,-81.67169784149581
-64.39913188962686,-76.50327974578897,-76.0749582106814
-63.91669588329856,-76.90680065743162,40.35323496614447
-63.4317315010528,-77.30727933887175,35.44060120052583
-62.94425792680158,-77.70469994822885,13.257445276118474
-62.454294443713934,-78.09904676459172,0.7829298180295865
-61.96186043345288,-78.49030418864044,26.72775325749153
-61.466975375409284,-78.8784567432631,36.91875814227964
-60.96965884593071,-79.26348907416848,-16.90755070714596
-60.46993051754759,-79.64538595049287,63.672993269029746
-59.9678101581945,-80.0241322654032,82.79035720501423
-59.46331763042871,-80.39971303669401,-91.34716141590042
-58.956472890643965,-80.77211340738066,-72.23242344690213
-58.44729598828155,-81.14131864628654,42.352929607257124
-57.93580706503673,-81.5073141486262,95.16853704909303
-57.422026354062425,-81.87008543658277,49.79751392572055
-56.90597417916842,-82.22961815988091,-7.8685497939851246
-56.387670954017786,-82.58589809635431,91.57476843346393
-55.86713718131925,-82.93891115250824,17.469119187246335
-55.34439345201586,-83.28864336407734,-48.25119532901283
-54.81946044447103,-83.63508089657759,-58.20798987240367
-54.29235892364995,-83.97821004585396,68.53892270132184
-53.76310974029877,-84.3180172386222,-70.47312082670388
-53.23173383011922,-84.65448903300604,-14.557558068690724
-52.69825221294102,-84.9876121190686,-44.31655731269972
-52.1626859918898,-85.31737331933927,17.984729940912672
-51.625056352552946,-85.64375958933455,86.34093991786025
-51.08538456214089,-85.9667580180745,-30.807935601612584
-50.54369196864652,-86.28635582859306,-0.7795623915706642
-50.00000000000004,-86.60254037844385,23.613710314727314
-49.454330163221876,-86.9152991601999,-59.729628520158954
-48.90670404357173,-87.2246198019486,44.55793704912662
-48.35714330369445,-87.53049006778129,-1.0208903093051163
-47.80566968276366,-87.83289785827684,-4.907278461788806
-47.25230499562121,-88.13183121098069,90.92575601796662
-46.69707113191486,-88.42727830087775,98.03749219861993
-46.13999005523174,-88.7192274408604,83.1159537115536
-45.58108380223019,-89.00766708219055,-95.74516535963839
-45.02037448176736,-89.29258581495684,-35.140531182833044
-44.45788427402534,-89.5739723685255,-98.31998619817026
-43.89363542963309,-89.85181561198671,0.6947621902117618
-43.32765026878693,-90.12610455459443,94.32700188983529
-42.759951180366954,-90.39682834620159,-1.6310721302124023
-42.190560621051944,-90.66397627768893,46.42524754256078
-41.61950111443082,-90.92753778138882,-22.292207498961574
-41.046795250111394,-91.18750243150336,-90.84336818969653
-40.472465682827405,-91.44385994451655,-47.180548429529544
-39.896535131541654,-91.69660017960133,24.692043357656758
-39.31902637854796,-91.94571313902051,-64.86858912807539
-38.739962268569336,-92.1911889685225,-63.016803993206
-38.15936570785492,-92.43301795773081,79.70905939676376
-37.57725966327325,-92.67119054052849,29.859662734294773
-36.9936671614044,-92.90569729543624,80.3613959244669
-36.40861128762842,-93.1365289459854,-23.072879094825097
-35.82211518521283,-93.36367636108459,87.37492696852038
-35.23420205439648,-93.58713055538118,-38.80578579477885
-34.64489515147236,-93.80688268961657,36.17814031191301
-34.05421778786742,-94.02292407097588,23.868215275713723
-33.462193329220156,-94.23524615343186,-91.58749236942127
-32.868845194456945,-94.44384053808287,19.829562459182128
-32.27419685486495,-94.64869897348524,27.48055540716703
-31.678271833164338,-94.84981335597949,-95.98354786645211
-31.081093702577146,-95.04717573001115,-45.8109680698586
-30.482686085895395,-95.24077828844511,-16.669029849671603
-29.883072654546012,-95.43061337287487,33.81380614722306
-29.28227712765512,-95.61667347392508,-1.9336161903152487
-28.680323271109064,-95.79895123154888,-18.658469721583273
-28.077234896614932,-95.9774394353189,-36.14842374281471
-27.473035860758333,-96.15213102471253,78.46385337982642
-26.867750064059464,-96.32301908939127,85.46526863660378
-26.26140145002825,-96.49009686947389,-80.75733297763017
-25.654014004216524,-96.65335775580412,76.26990504452408
-25.045611753269913,-96.81279529021187,-82.22530820658807
-24.43621876397672,-96.96840316576876,-66.68258713540811
-23.82585914231657,-97.1201752270376,0.04112315617680906
-23.21455703250619,-97.268105470316,-60.6812178133058
-22.602336616044983,-97.4121880438736,63.7486269230194
-21.989222110757805,-97.55241724818387,96.12920409677218
-21.37523776983765,-97.68878753614923,26.89855920341398
-20.76040788088557,-97.82129351332082,-47.98054367079545
-20.144756764950525,-97.94992993811165,14.726850391997743
-19.528308775567055,-98.07469172200395,24.415875686344407
-18.91108829779164,-98.19557392975067,48.21040643341789
-18.293119747238727,-98.31257177957042,73.77797709107895
-17.674427569114183,-98.42568064333686,-34.937053967193975
-17.055036237249038,-98.53489604676163,-33.99365109988585
-16.43497025313064,-98.64021366957145,16.34778260223895
-15.814254144934155,-98.74162934567889,-24.467810855950617
-15.192912466551595,-98.83913906334728,-19.664827267346425
-14.570969796621222,-98.93273896534934,-92.559560165341
-13.948450737554596,-99.02242534911984,-63.71375435214759
-13.325379914564058,-99.10819466690195,-91.11158467451457
-12.70178197468792,-99.19004352588769,-43.18839898221016
-12.077681585816121,-99.26796868835203,-54.13048492728796
-11.453103435714144,-99.34196707178107,52.6600611041919
-10.828072231046196,-99.41203574899392,-61.87176557243488
-10.20261269639847,-99.47817194825852,-88.24938012673975
-9.576749573300416,-99.54037305340125,26.249392527040854
-8.95050761924673,-99.59863660391044,-54.48681565321143
-8.323911606717305,-99.65296029503367,-87.05876261800876
-7.696986322198013,-99.703341977869,73.68200572790678
-7.0697565651995005,-99.74977965944997,-79.42822127169308
-6.442247147276896,-99.79227150282432,-8.131182133320735
-5.814482891047624,-99.83081582712681,-61.65495577571618
-5.186488629210193,-99.86541110764564,-43.03335447374997
-4.558289203561173,-99.89605597588273,80.77141648935452
-3.92990946401314,-99.92274921960794,-35.93306131443204
-3.30137426761141,-99.94548978290693,89.5422532609879
-2.672708477550499,-99.964276766223,48.123928854054384
-2.0439369621912165,-99.97910942639261,75.61814918910738
-1.415084594076232,-99.98998717667489,-99.89286039587715
-0.7861762489468911,-99.99690958677469,95.84891229962841
-0.15723680475848809,-99.99987638285974,-71.58704468421418
0.4717088593031313,-99.9988874475714,40.119692719417685
1.1006358638064344,-99.99394282002937,-80.01730789760549
1.729519330057657,-99.98504269583005,-61.90596674165248
2.3583343810856476,-99.97218742703888,95.9588567607016
2.987056142625226,-99.95537752217639,-48.30773553614367
3.615659744101852,-99.93461364619809,34.08945575318222
4.244120319614822,-99.90989662046815,60.40098384150559
4.87241300892116,-99.88122742272691,-23.700938812020397
5.500512958419292,-99.84860718705224,87.5261693088309
6.128395322131569,-99.81203720381463,-79.66001682469582
6.756035262687816,-99.77151891962615,72.70167269531888
7.383407952307124,-99.72705393728327,-87.83192399141402
8.010488573780679,-99.67864401570343,-49.017805421287065
8.637252321452761,-99.62629106985544,-30.236429127942245
9.263674402202696,-99.56999717068378,89.07076864788104
9.889730036424895,-99.50976454502661,98.23891867169104
10.515394459009784,-99.44559557552776,-40.15396506437268
11.140642920322735,-99.37749280054243,92.50457115728122
11.765450687183806,-99.30545891403678,47.429652236744374
12.389793043845497,-99.22949676548137,72.32235638772858
13.013645292970711,-99.14960935973849,-43.18989093556429
13.636982756609974,-99.06579985694317,52.03632867044652
14.259780777177019,-98.97807157237835,26.902757243889553
14.882014718424877,-98.88642797634357,51.566842876044944
15.503659966419711,-98.79087269401782,0.7113490656001318
16.124691930515198,-98.691409505316,-66.0947771883961
16.745086044324545,-98.58804234473959,50.11063916969974
17.364817766692997,-98.48077530122082,-17.33264414073821
17.983862582667896,-98.36961261796104,-92.92983406056707
18.602196004469153,-98.25455869226278,-40.80326553433507
19.219793572457196,-98.13561807535596,-38.932128610235004
19.836630856101237,-98.01279547221768,62.301625344719554
20.452683454945074,-97.88609574138614,47.761574415073284
21.067926999572574,-97.75552389476864,92.4400787834368
21.682337152571897,-97.62108509744296,-71.2127041209028
22.295889609497653,-97.48278466745344,-25.61392577792472
22.90856009983297,-97.34062807560028,31.96273786173748
23.520324387948925,-97.19462094522338,60.47763431025868
24.131158274063893,-97.04476905197971,55.7194416370553
24.74103759520016,-96.89107832361498,-1.517971032283441
25.349938226140434,-96.73355483972902,-36.04639651010464
25.957836080381476,-96.57220483153549,75.00127774071032
26.564707111087582,-96.40703468161507,93.3025878190297
27.170527312041166,-96.23805092366338,88.3925972090235
27.775272718593,-96.06526024223211,16.067630287317087
28.378919408609672,-95.88866947246498,-84.57470580361952
28.981443503420056,-95.70828559982711,-54.37652307875227
29.58282116876022,-95.52411575982869,-84.7811171899842
30.183028615715607,-95.33616723774296,-98.46706944159749
30.78204210166275,-95.14444746831768,40.102308031874855
31.379837931207792,-94.94896403548137,-73.09353807680941
31.97639245712449,-94.74972467204299,48.08391034268891
32.57168208128897,-94.54673725938638,-21.441629004114105
33.165683255613864,-94.34000982715813,26.386268453923208
33.75837248297914,-94.12955055295036,-67.38666259577272
34.349726318162276,-93.9153677619768,66.12487345915022
34.939721368765,-93.69746992674384,-12.292165397136287
35.528334296139306,-93.47586566671512,83.32338939161218
36.1155418163101,-93.25056374797074,63.153290957610096
36.70132070089648,-93.02157308286046,-23.657727378281024
37.28564777803084,-92.78890272965094,85.2963694559939
37.86849993327494,-92.55256189216783,19.717444363370547
38.44985411053488,-92.31255991943125,77.00429264931856
39.02968731297248,-92.06890630528635,54.56503715679736
39.60797660391565,-91.82161068802742,55.848204256246476
40.184699107765034,-91.57068285001695,50.908757850884825
40.75983201089958,-91.31613271729834,12.979932281085311
41.33335256257831,-91.0579703592036,-89.02570104536385
41.90523807584094,-90.79620598795464,70.46725825803784
42.47546592840469,-90.53084995825971,29.253558259290656
43.04401356355976,-90.26191276690344,-84.48673581689607
43.61085849106109,-89.98940505233183,26.13366618013731
44.17597828801825,-89.71333759423143,8.104156564586233
44.73935059978267,-89.43372131310274,88.00554637187426
45.30095314083134,-89.15056726982843,18.75682082436765
45.86076369564906,-88.8638866652356,95.85128735423493
46.41876011960654,-88.57369083965297,83.32255643041333
46.97492033983705,-88.27999127246198,97.5203109417472
47.52922235610892,-87.98279958164298,-82.22608882343408
48.08164424169644,-87.68212752331537,60.86360548290094
48.632164144246595,-87.37798699127289,98.1514566998417
49.18076028664412,-87.07039001651277,-91.36682815749163
49.72741096787232,-86.75934876676018,-5.446443166812216
50.27209456387213,-86.44487554598652,76.03096254555541
50.81478952839691,-86.12698279392309,-34.343911032955916
51.35547439386511,-85.80568308556879,-77.34845093099281
51.894127772209565,-85.4809891306926,79.44904576445114
52.43072835572311,-85.15291377333116,-95.05515656074208
52.965254917902016,-84.82146999128025,96.15585547839544
53.4976863142851,-84.48667089558182,29.164404534171553
54.028001483290666,-84.14852973000504,-26.604993749482972
54.55617944704911,-83.80705987052269,23.11206496797473
55.08219931223336,-83.46227482478176,-18.491139291290338
55.606040270884684,-83.11418823156941,-81.3563399263397
56.12768160123647,-82.76281386027314,89.63264004976713
56.64710266853338,-82.40816561033645,-68.18333285090685
57.16428292584782,-82.05025751070878,-72.34097984408427
57.67920191489295,-81.68910371929054,91.83202224386105
58.19183926683146,-81.32471852237333,-54.60552655344087
58.702174703081845,-80.95711633407441,-38.71990588341949
59.21018803612005,-80.58631169576695,-66.46908316302718
59.715859170278584,-80.2123192755044,76.96018662234127
60.21916810254089,-79.83515386744064,-83.74057300952231
60.720094923333136,-79.45483039124439,97.81589826361463
61.21861981731129,-79.07136389150942,-28.013174534582248
61.71472306414548,-78.68476953715903,60.870643615317675
62.20838503929953,-78.29506262084637,-45.5661237135677
62.6995862148078,-77.90225855834916,-61.05338146447294
63.188307160047195,-77.50637288796017,89.22995006535629
63.674528542506,-77.10742126987252,-15.424148844106938
64.15823112854882,-76.70541948555989,-35.33347376928573
64.63939578417687,-76.30038343715277,70.31527351548922
65.11800347578554,-75.89232914680892,-61.315349689319554
65.5940352709167,-75.48127275607995,-10.658681896900205
66.06747233900812,-75.06723052527245,93.63446178743263
66.53829595213787,-74.65021883280527,-8.37739980334824
67.0064874857657,-74.23025417456095,-51.72552468338745
67.47202841946918,-73.80735316323396,-96.91287913415654
67.93490033767694,-73.3815325276728,-82.78439564337728
68.3950849303965,-72.95280911221892,-7.090938132578202
68.85256399393917,-72.52119987603977,-13.03424719733215
69.3073194316397,-72.08672189245851,86.6645416429804
69.75933325457224,-71.64939234827837,-21.939852973805102
70.20858758226224,-71.20922854310257,-24.185827320128624
70.65506464339319,-70.7662478886505,43.806616306616036
71.0987467765102,-70.32046790806841,22.834943727953856
71.53961643071813,-69.8719062352368,-76.73012215899386
71.97765616637632,-69.42058061407228,11.148273456772031
72.41284865578797,-68.96650889782624,61.60957895678092
72.84517668388605,-68.50970904837811,79.21387058226617
73.2746231489139,-68.0501991355253,-66.55853429927572
73.7011710631021,-67.58799733626795,-66.95647836226095
74.12480355333994,-67.12312193409035,-8.396271877497739
74.54550386184357,-66.65559131823724,-33.20654465343141
74.96325534681823,-66.18542398298682,90.38052203587984
75.3780414831169,-65.71263852691891,-99.86329526349633
75.78984586289408,-65.23725365217912,42.69150564788856
76.19865219625446,-64.75928816373946,-72.03930011307484
76.60444431189778,-64.27876096865396,-97.01798871507823
77.00720615775806,-63.795691075311254,36.69726774617706
77.40692180163904,-63.310097592682155,75.39837746984452
77.8035754318439,-62.821999729564304,89.52400696278809
78.19715135780127,-62.3314167938217,-22.665638552847227
78.58763401068542,-61.838368191621605,-34.43348141869063
78.97500794403257,-61.34287342666622,-1.510645046576741
79.35925783435142,-60.84495209942179,-57.22763428704991
79.74036848172986,-60.34462390634266,-36.727209856280126
80.11832481043574,-59.8419086390927,-30.655582530304116
80.49311186951344,-59.33682618376209,25.81720823489364
80.86471483337549,-58.829396520080536,-90.87604683351067
81.23311900238855,-58.31963972062739,61.92457654107838
81.59830980345544,-57.807575950037105,-33.69791211212055
81.9602727905911,-57.29322546420206,-25.036448021187624
82.3189936454945,-56.77660860947081,-60.50929736613797
82.67445817811459,-56.257745821843784,-20.653867860714968
83.02665232721205,-55.73665762616425,-4.2222040959180305
83.37556216091511,-55.2133646353071,63.52433458070672
83.72117387727104,-54.68788754936279,-74.6305055311625
84.06347380479176,-54.16024715481909,-17.27645594403937
84.402448402995,-53.6304643237383,26.407957578427983
84.73808426293961,-53.09856001293205,-46.08949168559329
85.07036810775611,-52.56455526313213,88.96123391084657
85.39928679317205,-52.02847119815792,0.8014117507238723
85.72482730803164,-51.490329024081326,-44.12171815195107
86.04697677481074,-50.95015002838734,38.571332566761015
86.36572245012601,-50.40795557913253,-17.224982548481833
86.68105172523927,-49.86376712409918,52.82275910356759
86.99295212655592,-49.31760618994752,56.48801160097
87.30141131611879,-48.7694943813635,81.8617717798565
87.60641709209577,-48.219453380204854,-64.64645534733631
87.90795738926286,-47.66750494464279,-63.56756088826736
88.2060202794811,-47.11367090830188,-71.33101764556471
88.5005939721687,-46.557973179395766,-63.911676658520356
88.7916668147673,-46.000433739861116,37.05559030970093
89.0792272932028,-45.441074644487806,-40.55174073915453
89.36326403234122,-44.87991802004625,-63.77283333840818
89.64376579643813,-44.316986064412674,-89.75222118229101
89.92072148958367,-43.75230104569046,53.900290400297706
90.19412015614093,-43.18588530132981,-69.65565034283996
90.46395098117979,-42.61776123724357,22.712310939214817
90.7302032909044,-42.04795132692152,58.188088408680386
90.99286655307566,-41.47647811054075,5.779928923349374
91.25193037742757,-40.90336419407468,-36.81872045376533
91.50738451607859,-40.32863224839818,86.45575874587078
91.75921886393661,-39.75230500839139,47.735819401490744
92.0074234590991,-39.17440527203979,71.59763580073991
92.25198848324686,-38.5949558995329,40.275098569637635
92.49290426203248,-38.013979812359736,89.56407274015953
92.73016126546322,-37.43149999240192,6.440764744085882
92.9637501082777,-36.847539481025066,-99.70755530974654
93.19366155031737,-36.262121378166725,92.05241047355085
93.41988649689195,-35.67526884142326,-86.54879904895347
93.64241599913922,-35.08700508513309,64.24261312137068
93.8612412543789,-34.49735337945914,-42.822071297465556
94.07635360646108,-33.906337049467574,-56.817312970279524
94.28774454610839,-33.31397947420585,16.294078220894278
94.49540571125281,-32.720304085777215,12.18898153062267
94.69932888736629,-32.12533436841447,-25.93056987947473
94.89950600778585,-31.52909385755031,98.45795557052008
95.09592915403252,-30.931606138886913,35.62369093153748
95.28859055612465,-30.332894847462732,-52.69813276142399
95.47748259288534,-29.73298366671726,-81.64569132986458
95.66259779224376,-29.131896327554795,-80.46050385021164
95.84392883153086,-28.52965660740502,29.63913786603888
96.02146853776891,-27.92628832928309,54.15630536281992
96.19520988795547,-27.321815360846628,-57.94990979468444
96.36514600934085,-26.716261613452225,6.034436337616754
96.53127017970033,-26.109651041208874,15.640575513552463
96.69357582759982,-25.502007640031145,-73.52088417324202
96.85205653265598,-24.89335544668922,-96.29892226417152
97.00670602579007,-24.283718537858732,49.31421909730628
97.15751818947601,-23.673121029168044,-40.254565031526155
97.30448705798239,-23.061587074244045,-33.88996685958965
97.4476068176083,-22.449140863757332,18.651132232778366
97.5868718069136,-21.835806624464578,3.4770158226168064
97.72227651694254,-21.22160861825087,-44.63264313892863
97.85381559144196,-20.606571141169297,-12.942480973456895
97.98148382707292,-19.990718522480545,-19.40148903224828
98.1052761736168,-19.374075123689813,-23.830107307622512
98.2251877341748,-18.756665337583808,64.503785214072
98.34121376536186,-18.138513587265162,-17.125022330132182
98.45334967749417,-17.519644325187002,40.78479574987131
98.56159103477083,-16.90008203218497,79.06036153694544
98.66593355544919,-16.279851216509456,-16.22713792633192
98.76637311201432,-15.658976412855838,-21.981153995949555
98.86290573134227,-15.037482181393699,-75.44815589249015
98.95552759485719,-14.415393106795907,28.18312083529463
99.04423503868244,-13.792733797265393,-44.75345609548573
99.12902455378553,-13.169528883562446,-22.516149749808022
99.20989278611684,-12.545803018029646,24.927530471202815
99.28683653674237,-11.921580873617426,56.289835122835655
99.35985276197029,-11.296887142907334,82.58301214815458
99.42893857347129,-10.671746537135988,66.8605650479495
99.49409123839288,-10.04618378521685,-11.488848010021186
99.55530817946745,-9.42022363276273,-44.043139414138174
99.6125869751143,-8.793890841106188,6.112894415071722
99.6659253595353,-8.167210186320688,-21.483086119256583
99.71532122280463,-7.54020645824023,-12.213792020987285
99.76077261095226,-6.912904459478485,93.58273063125091
99.80227772604111,-6.285329004448273,-80.50705474419671
99.8398349262383,-5.6575049183792725,-30.326946145400925
99.87344272588005,-5.029457036336704,-63.57258988206589
99.90309979553044,-4.401210202238211,-22.408649018675902
99.92880496203401,-3.77278926787181,79.36835338076617
99.95055720856215,-3.1442190919121114,78.85374293105863
99.96835567465338,-2.515524538937684,-91.66434609908896
99.98219965624732,-1.8867304784467676,18.0949413225497
99.99208860571255,-1.257861783874212,20.446907221196724
99.99802213186832,-0.6289433316068405,76.1689951467173
100.0,-2.4492935982947064e-14,-68.42600663800383
100.0,0.0,49.83651733341895
99.99802213186832,0.6289433316067751,-35.523078612853084
99.99208860571255,1.2578617838741057,57.669043175584335
99.98219965624732,1.886730478446709,-69.08625392724774
99.96835567465338,2.515524538937585,30.746924747535672
99.95055720856215,3.1442190919120603,14.268868814400392
99.92880496203401,3.772789267871718,-72.33401521342381
99.90309979553044,4.4012102022381665,-42.7298430279061
99.87344272588005,5.029457036336618,-22.155372241627276
99.83983492623831,5.657504918379234,-98.10570819396625
99.80227772604111,6.285329004448194,46.62979117725965
99.76077261095226,6.9129044594784546,90.34415458493422
99.71532122280465,7.540206458240159,-9.351792663146341
99.6659253595353,8.167210186320663,-14.060997495060406
99.6125869751143,8.793890841106125,67.86819733908624
99.55530817946746,9.420223632762625,35.250102845718544
99.49409123839288,10.046183785216794,-47.05831575026487
99.4289385734713,10.671746537135888,12.407937239866612
99.35985276197029,11.296887142907282,-31.101908289532204
99.28683653674237,11.921580873617335,65.38124749270412
99.20989278611685,12.545803018029602,-30.704927164171167
99.12902455378554,13.169528883562359,97.74140703577433
99.04423503868246,13.792733797265358,53.605048702827645
98.9555275948572,14.415393106795829,6.784454628615805
98.86290573134227,15.037482181393669,97.83327263923351
98.76637311201432,15.658976412855766,17.130957653183827
98.6659335554492,16.27985121650943,35.858035891879155
98.56159103477084,16.90008203218491,-19.9135191371185
98.4533496774942,17.5196443251869,50.24324970243265
98.34121376536187,18.138513587265106,56.63503830855987
98.22518773417481,18.756665337583716,98.34166495512324
98.1052761736168,19.374075123689764,-5.340381309210457
97.98148382707295,19.990718522480456,91.32940874803944
97.85381559144196,20.606571141169255,35.33469502650763
97.72227651694256,21.221608618250787,94.2070937403538
97.5868718069136,21.835806624464542,28.780140864067874
97.44760681760832,22.449140863757258,-47.13910275392954
97.30448705798239,23.061587074244013,-97.3823723434323
97.15751818947602,23.673121029167973,-81.14391910350444
97.00670602579008,24.283718537858714,-32.05119362165195
96.85205653265598,24.89335544668916,-75.59580533975372
96.69357582759983,25.502007640031042,-92.69685770561328
96.53127017970033,26.10965104120882,25.630206700459723
96.36514600934086,26.71626161345213,87.32521360784216
96.19520988795549,27.321815360846585,51.8960255248912
96.02146853776895,27.926288329283004,50.29257267584089
95.84392883153086,28.529656607404974,-13.61850718263102
95.66259779224377,29.131896327554717,-18.618988287428976
95.47748259288535,29.732983666717228,80.6871126466076
95.28859055612467,30.332894847462665,-9.288704223502876
95.09592915403253,30.931606138886885,27.40002763231442
94.89950600778587,31.529093857550244,-81.17868167122357
94.69932888736633,32.125334368414364,-92.57933766979075
94.49540571125283,32.72030408577716,-92.02572088432206
94.28774454610843,33.31397947420576,14.87833333108162
94.0763536064611,33.90633704946752,32.98341047278444
93.86124125437894,34.49735337945904,69.83309023693744
93.64241599913925,35.08700508513305,-90.55295756219668
93.41988649689198,35.67526884142317,59.538088888757926
93.1936615503174,36.26212137816669,95.6724208628558
92.96375010827771,36.84753948102499,14.074374333240257
92.73016126546322,37.43149999240188,5.4372143081080395
92.49290426203251,38.013979812359665,56.61608204744974
92.25198848324688,38.59495589953287,11.059328705886301
92.00742345909913,39.17440527203973,-86.43615619003984
91.75921886393665,39.75230500839129,90.86878226734211
91.5073845160786,40.32863224839812,40.78482408652141
91.25193037742761,40.903364194074584,-35.038394662547304
90.99286655307569,41.4764781105407,67.46234618575374
90.73020329090444,42.04795132692143,-44.66454098427366
90.4639509811798,42.61776123724353,-64.07749598779424
90.19412015614095,43.185885301329726,-87.30751688937046
89.92072148958368,43.75230104569043,-69.41576668173218
89.64376579643817,44.31698606441261,78.216311490008
89.36326403234122,44.87991802004621,11.376090743775663
89.07922729320283,45.44107464448774,-43.85549421190576
88.7916668147673,46.000433739861094,74.69307789774984
88.50059397216874,46.55797317939571,81.49908781184803
88.20602027948115,47.11367090830178,1.0925482397858417
87.90795738926289,47.66750494464274,3.023168589952192
87.60641709209582,48.21945338020477,51.83570907177679
87.30141131611883,48.76949438136345,-2.9674184824220333
86.99295212655596,49.31760618994744,-49.70084845666267
86.68105172523929,49.86376712409915,23.64907517703226
86.36572245012607,50.407955579132455,-18.331866553517443
86.04697677481077,50.95015002838732,5.976334522751813
85.72482730803168,51.49032902408126,69.93330410001656
85.39928679317208,52.02847119815789,30.062102156028146
85.07036810775614,52.56455526313207,-68.68269870840075
84.73808426293962,53.098560012932026,-58.23220302084682
84.40244840299503,53.63046432373824,-25.603520378007417
84.06347380479183,54.160247154819,-59.95897620644315
83.72117387727107,54.687887549362735,-20.735714288000267
83.37556216091517,55.213364635307016,-67.98960919476067
83.02665232721208,55.73665762616421,-43.53825685299255
82.67445817811463,56.257745821843706,55.052510120379225
82.31899364549453,56.77660860947078,43.257602975183715
81.96027279059116,57.29322546420199,-5.003275223333972
81.59830980345546,57.80757595003707,-51.70080707128546
81.2331190023886,58.31963972062732,-30.67628385327606
80.8647148333755,58.8293965200805,-88.00138098269062
80.49311186951348,59.336826183762035,-42.52063473892025
80.11832481043575,59.84190863909268,96.09901028241148
79.7403684817299,60.34462390634261,-86.86440227098954
79.3592578343515,60.844952099421704,26.35145414050261
78.9750079440326,61.34287342666618,-86.47817645905333
78.58763401068549,61.83836819162153,-21.28710582857252
78.1971513578013,62.33141679382166,-33.42193633620789
77.80357543184395,62.821999729564226,-54.228120857167596
77.40692180163907,63.310097592682126,26.80253472605783
77.00720615775812,63.795691075311176,-16.84841722415375
76.60444431189781,64.27876096865393,3.8213432324524916
76.19865219625451,64.7592881637394,94.95762580956176
75.7898458628941,65.23725365217909,6.696069874888082
75.37804148311696,65.71263852691885,-76.0458907950383
74.96325534681826,66.1854239829868,-33.87309758445012
74.54550386184363,66.6555913182372,-36.574381978823745
74.12480355334003,67.12312193409026,-57.088863873491434
73.70117106310214,67.5879973362679,35.79299293051349
73.27462314891399,68.05019913552523,-8.615836225627433
72.8451766838861,68.50970904837808,65.60477745142822
72.41284865578803,68.96650889782619,-98.56412285704998
71.97765616637636,69.42058061407225,6.888711215031734
71.5396164307182,69.87190623523674,97.20051020517982
71.09874677651024,70.32046790806838,43.769355605655704
70.65506464339325,70.76624788865044,78.34907544888162
70.20858758226225,71.20922854310253,-88.02983858188969
69.7593332545723,71.64939234827831,20.965658934030884
69.30731943163971,72.0867218924585,-18.050111831681733
68.85256399393921,72.52119987603972,-77.6935904893368
68.39508493039656,72.95280911221884,92.21051455230403
67.93490033767698,73.38153252767276,-67.7593084103772
67.47202841946927,73.80735316323388,-59.32283746555493
67.00648748576573,74.23025417456093,-88.76007136183935
66.53829595213794,74.6502188328052,47.98125767799263
66.06747233900815,75.06723052527244,94.5334053919556
65.59403527091678,75.48127275607987,-33.09092364302819
65.11800347578559,75.89232914680888,23.71834063227098
64.63939578417694,76.30038343715273,-99.99306297271113
64.15823112854883,76.70541948555987,98.36796785425938
63.67452854250606,77.10742126987246,-29.751152229311217
63.188307160047216,77.50637288796015,77.79025893671235
62.69958621480786,77.90225855834912,24.86883131252233
62.20838503929961,78.29506262084631,-19.408330694057184
61.714723064145524,78.684769537159,67.62282833791562
61.21861981731137,79.07136389150938,2.3365188978882685
60.720094923333164,79.45483039124437,74.63297769221137
60.219168102540955,79.8351538674406,-82.90671981094576
59.71585917027863,80.21231927550437,73.09579274116246
59.210188036120115,80.58631169576691,-73.03096427808214
58.702174703081866,80.9571163340744,89.57987751632709
58.19183926683152,81.32471852237329,-88.70992012377812
57.67920191489297,81.68910371929053,75.20194540746334
57.16428292584788,82.05025751070875,19.21440370938967
56.6471026685334,82.40816561033644,72.77875157988865
56.127681601236525,82.76281386027311,-8.441781546708697
55.60604027088476,83.11418823156936,-3.9855944051124084
55.082199312233406,83.46227482478173,40.497637403679875
54.5561794470492,83.80705987052264,-65.23441458160259
54.0280014832907,84.14852973000502,82.67259601713903
53.497686314285176,84.48667089558177,-43.24426115134739
52.96525491790206,84.82146999128022,-29.924530827987255
52.43072835572319,85.15291377333112,-51.588184747669
51.8941277722096,85.48098913069259,7.187274891460206
51.355474393865165,85.80568308556875,6.091690963129693
50.81478952839693,86.12698279392308,47.381191908115454
50.27209456387218,86.44487554598649,-91.946322728591
49.72741096787242,86.75934876676013,-59.64755019516477
49.18076028664418,87.07039001651275,37.723216716256644
48.632164144246694,87.37798699127283,20.170190971346983
48.08164424169648,87.68212752331536,-93.86750389876819
47.529222356108995,87.98279958164294,96.19708182292175
46.97492033983709,88.27999127246196,80.14159868963327
46.418760119606624,88.57369083965293,-43.26484052502477
45.8607636956491,88.86388666523558,-7.811503185980982
45.300953140831425,89.15056726982839,32.15173803075132
44.73935059978269,89.43372131310272,88.21840017244648
44.17597828801832,89.7133375942314,-30.79830443690949
43.61085849106111,89.98940505233182,77.96604491242698
43.044013563559815,90.2619127669034,-47.56230717480694
42.475465928404795,90.53084995825967,13.614276862331536
41.90523807584101,90.79620598795461,54.73079633329169
41.33335256257842,91.05797035920355,16.92312065411275
40.75983201089963,91.31613271729833,51.07595054412755
40.18469910776512,91.57068285001692,-5.3831938413609635
39.60797660391569,91.8216106880274,-1.376000197931532
39.02968731297256,92.0689063052863,-43.87187353667412
38.44985411053492,92.31255991943122,-95.77580004350621
37.868499933275025,92.55256189216779,-96.92246681421952
37.285647778030864,92.78890272965093,-54.98353929510815
36.70132070089654,93.02157308286041,80.45575678145289
36.11554181631012,93.25056374797074,-16.288529000477396
35.52833429613938,93.4758656667151,35.04911742638399
34.939721368765106,93.6974699267438,52.78462953984041
34.34972631816235,93.91536776197677,-29.994593798396423
33.75837248297925,94.12955055295032,-58.52599926093431
33.16568325561391,94.34000982715813,66.58529120531179
32.57168208128906,94.54673725938633,-55.36325481717987
31.976392457124536,94.74972467204297,31.594068722137905
31.379837931207877,94.94896403548132,-5.304597729553578
30.782042101662793,95.14444746831767,28.11420894854305
30.183028615715696,95.33616723774293,83.00874143716706
29.582821168760248,95.52411575982869,82.83168282400939
28.981443503420124,95.70828559982708,-71.72599098679447
28.378919408609693,95.88866947246497,48.28802087986159
27.77527271859307,96.0652602422321,2.322634995287757
27.170527312041276,96.23805092366334,35.85559100896913
26.56470711108765,96.40703468161506,12.450610525823151
25.95783608038158,96.57220483153546,3.237054084826269
25.349938226140477,96.73355483972902,86.94576579233276
24.74103759520025,96.89107832361495,-73.51550683851147
24.131158274063942,97.0447690519797,94.16805038895552
23.520324387949014,97.19462094522335,-62.26306695818262
22.908560099833018,97.34062807560026,-0.5783026795772628
22.295889609497742,97.48278466745342,16.625223922824418
21.68233715257192,97.62108509744296,57.82883491602354
21.06792699957264,97.75552389476861,53.30992289420496
20.4526834549451,97.88609574138614,-99.35286790322529
19.836630856101305,98.01279547221765,-50.73897358097248
19.21979357245731,98.13561807535595,-2.0308421707898816
18.602196004469224,98.25455869226278,46.91452347076245
17.98386258266799,98.36961261796101,-52.22585044650347
17.36481776669304,98.4807753012208,-1.6500219377041816
16.745086044324637,98.58804234473958,-46.3966947059417
16.12469193051524,98.691409505316,73.49266024686276
15.503659966419804,98.7908726940178,12.423444216719503
14.882014718424925,98.88642797634357,-89.24546333495567
14.259780777177111,98.97807157237834,-80.35112909861229
13.63698275661,99.06579985694317,-10.948967877861264
13.01364529297078,99.14960935973848,-13.84669285689823
12.389793043845522,99.22949676548136,-95.55528932161906
11.765450687183874,99.30545891403678,-48.04345281270448
11.140642920322849,99.37749280054243,-4.646706252050819
10.515394459009853,99.44559557552776,12.274065855109214
9.889730036424986,99.5097645450266,74.69316597462142
9.263674402202742,99.56999717068376,73.98730426112664
8.637252321452852,99.62629106985543,-17.645295018110204
8.010488573780725,99.67864401570343,-60.59886671265322
7.383407952307214,99.72705393728327,-75.76096394504539
6.756035262687862,99.77151891962615,-62.60601451423686
6.128395322131638,99.81203720381463,-78.31499381310294
5.500512958419316,99.84860718705224,-71.42274404146139
4.872413008921228,99.88122742272691,49.21526548056693
4.244120319614846,99.90989662046815,10.444939887695014
3.6156597441019205,99.93461364619809,-70.56547794374751
2.9870561426253386,99.95537752217638,-36.22537864917674
2.3583343810857165,99.97218742703888,-20.92486517928687
1.729519330057748,99.98504269583005,-67.41628179529545
1.1006358638064813,99.99394282002937,-47.22000907632405
0.47170885930322237,99.9988874475714,-92.50582190453053
-0.1572368047584414,99.99987638285974,58.73798376481349
-0.7861762489468,99.99690958677469,32.80779342430128
-1.4150845940761854,99.98998717667489,21.407318340693337
-2.0439369621911476,99.97910942639263,-93.02470803252747
-2.6727084775504744,99.964276766223,51.43894853716682
-3.3013742676113416,99.94548978290693,86.68816254959737
-3.929909464013115,99.92274921960794,-71.12163019452842
-4.558289203561104,99.89605597588275,18.278911125131714
-5.18648862921008,99.86541110764566,75.95642574398337
-5.814482891047555,99.83081582712681,18.710231548111807
-6.442247147276806,99.79227150282432,24.6879880389711
-7.069756565199453,99.74977965944997,78.04560665227481
-7.6969863221979224,99.70334197786902,34.717853431830434
-8.323911606717257,99.65296029503368,-5.951039425378738
-8.950507619246638,99.59863660391044,14.232071448498047
-9.576749573300368,99.54037305340125,24.442384135941353
-10.202612696398402,99.47817194825853,37.299700469073485
-10.828072231046173,99.41203574899393,-32.04208147581981
-11.453103435714077,99.34196707178107,-5.168207753678189
-12.077681585816096,99.26796868835203,-80.68260946217414
-12.701781974687854,99.19004352588769,-14.68070729260127
-13.325379914563944,99.10819466690197,52.77747963202876
-13.94845073755453,99.02242534911986,-33.859726283543694
-14.570969796621133,98.93273896534936,-10.882812481532739
-15.192912466551547,98.83913906334728,-20.6838969512323
-15.814254144934065,98.74162934567889,-35.45652227294286
-16.434970253130594,98.64021366957147,-11.679263846784465
-17.055036237248945,98.53489604676166,-15.054767739770611
-17.674427569114137,98.42568064333686,68.11348488057064
-18.293119747238656,98.31257177957042,93.70034973876048
-18.91108829779162,98.19557392975067,74.8371169442745
-19.528308775566984,98.07469172200398,95.49601214944855
-20.144756764950504,97.94992993811165,-89.04190089556778
-20.760407880885502,97.82129351332085,87.52009266139297
-21.375237769837536,97.68878753614926,84.25031790759786
-21.98922211075776,97.55241724818387,-87.49204510620108
-22.602336616044894,97.41218804387363,-71.50031760999529
-23.214557032506143,97.26810547031602,-65.53291414058768
-23.82585914231648,97.12017522703763,-64.16478040431923
-24.436218763976672,96.96840316576876,72.25814192577954
-25.045611753269824,96.81279529021188,65.33535565935054
-25.65401400421648,96.65335775580415,19.12479850711533
-26.26140145002818,96.4900968694739,30.157405912105332
-26.867750064059443,96.32301908939127,-87.49523922197606
-27.473035860758266,96.15213102471255,7.246533824145601
-28.07723489661491,95.97743943531891,66.21156983368266
-28.680323271109,95.79895123154888,95.38722888304153
-29.28227712765501,95.6166734739251,-69.19677561371947
-29.883072654545966,95.43061337287489,-20.35416864316595
-30.482686085895306,95.24077828844514,45.29682524343917
-31.0810937025771,95.04717573001116,3.4676561218124817
-31.678271833164256,94.84981335597953,-20.00619794736855
-32.274196854864904,94.64869897348525,-47.220233001736055
-32.86884519445686,94.4438405380829,78.99704816064138
-33.462193329220135,94.23524615343186,-17.9461789871888
-34.05421778786735,94.0229240709759,-21.540367060343215
-34.64489515147234,93.80688268961659,-86.06118842795969
-35.23420205439641,93.58713055538121,94.5374541218583
-35.82211518521272,93.36367636108463,-60.74739655093815
-36.408611287628354,93.13652894598543,5.838884440046229
-36.9936671614043,92.90569729543628,-10.917207367705188
-37.57725966327321,92.6711905405285,-50.600353717296784
-38.15936570785484,92.43301795773084,31.753961484109283
